1.416637897491455078e-01 1.350058913230895996e-01 1.475695669651031494e-01
-1.962294876575469971e-01 1.044956147670745850e-01 -6.480144709348678589e-02
-1.812721788883209229e-01 -1.347946971654891968e-01 2.790989354252815247e-03
1.696198433637619019e-01 1.813474148511886597e-01 -1.315951049327850342e-01
1.904056519269943237e-01 1.983612962067127228e-02 -1.360417809337377548e-02
-1.927422285079956055e-01 5.512845143675804138e-02 1.602509245276451111e-02
-1.764020919799804688e-01 1.492871940135955811e-01 -5.638561025261878967e-02
1.659804880619049072e-01 -1.494920104742050171e-01 -8.447712659835815430e-02
-1.759790182113647461e-01 3.456289321184158325e-02 -6.180325150489807129e-02
-9.495703876018524170e-02 -1.265832185745239258e-01 1.200873106718063354e-01
1.485841115936636925e-03 8.204792439937591553e-02 2.240629643201828003e-01
-1.687912046909332275e-01 5.744622647762298584e-02 -9.728254377841949463e-02
2.251621931791305542e-01 1.818190217018127441e-01 3.383619338274002075e-02
-1.399542540311813354e-01 6.034991517663002014e-02 -1.247920691967010498e-01
-1.864274442195892334e-01 6.861397624015808105e-02 -3.995409607887268066e-02
2.514396607875823975e-02 1.140914857387542725e-01 1.857284307479858398e-01
-1.759252399206161499e-01 -3.606394305825233459e-02 -2.390845678746700287e-02
7.296077162027359009e-02 -1.225521191954612732e-01 -1.729763746261596680e-01
-4.513428360223770142e-02 -1.948038190603256226e-01 4.093223065137863159e-02
-7.758277654647827148e-02 -1.854434609413146973e-01 -1.234467923641204834e-01
-1.552259624004364014e-01 -1.671968251466751099e-01 6.074924021959304810e-02
9.688592702150344849e-02 7.414345443248748779e-02 -2.005822062492370605e-01
-6.824299693107604980e-02 1.934310346841812134e-01 -2.115435302257537842e-01
2.042896449565887451e-01 1.237850338220596313e-01 4.930778965353965759e-02
1.968639194965362549e-01 1.270712912082672119e-02 -5.742544680833816528e-02
-1.354089677333831787e-01 -1.405673623085021973e-01 9.982739388942718506e-02
-1.477630734443664551e-01 5.253214761614799500e-02 -1.223945543169975281e-01
2.911527752876281738e-01 1.956367790699005127e-01 -2.528121322393417358e-02
1.745277941226959229e-01 2.231056988239288330e-01 1.323978006839752197e-01
-1.258764564990997314e-01 5.573890358209609985e-02 -1.768916547298431396e-01
2.103270143270492554e-01 2.445709146559238434e-02 3.962343186140060425e-02
2.010751813650131226e-01 9.243881702423095703e-02 1.104303449392318726e-02
1.036390066146850586e-01 4.045496135950088501e-02 1.743586212396621704e-01
-1.843531280755996704e-01 7.488403469324111938e-02 -6.740237772464752197e-02
8.464817889034748077e-03 1.626554131507873535e-01 -2.085305452346801758e-01
2.137493640184402466e-01 1.523612439632415771e-01 5.138919502496719360e-02
-1.680432260036468506e-01 1.086458116769790649e-01 1.377807557582855225e-01
-1.601585596799850464e-01 -1.524580866098403931e-01 1.098023727536201477e-02
-1.722479313611984253e-01 1.862339377403259277e-01 -7.259459048509597778e-02
-1.384038925170898438e-01 1.191541403532028198e-01 -1.621761769056320190e-01
1.643492579460144043e-01 -1.335245817899703979e-01 2.004374749958515167e-02
4.848662763833999634e-02 -1.954553127288818359e-01 -1.592006534337997437e-01
2.234722375869750977e-01 1.648527085781097412e-01 1.974257081747055054e-02
1.715028584003448486e-01 1.323641277849674225e-02 -1.164118871092796326e-01
2.051350772380828857e-01 1.641547083854675293e-01 9.206282347440719604e-02
-1.448400914669036865e-01 -9.964934736490249634e-02 9.408015012741088867e-02
-2.015981078147888184e-01 1.978214681148529053e-01 1.212045922875404358e-02
-1.372251957654953003e-01 1.099853292107582092e-01 1.195571646094322205e-01
-1.362324506044387817e-01 5.254604853689670563e-03 -1.335288882255554199e-01
-5.840078741312026978e-02 2.778446674346923828e-02 -1.653170734643936157e-01
1.377999186515808105e-01 2.142029553651809692e-01 1.492172926664352417e-01
-1.785584241151809692e-01 8.221327327191829681e-03 -1.830108463764190674e-02
2.262287884950637817e-01 1.400902420282363892e-01 -1.904803700745105743e-02
-1.981057077646255493e-01 3.138434886932373047e-02 -4.242341965436935425e-02
-1.425231397151947021e-01 -3.191456198692321777e-02 -5.143797025084495544e-02
-4.126826673746109009e-02 6.216917559504508972e-02 -1.963360458612442017e-01
1.957636475563049316e-01 1.336746513843536377e-01 8.799220621585845947e-02
1.915529370307922363e-01 6.511970888823270798e-03 -8.164421468973159790e-02
-1.411055624485015869e-01 -1.938346326351165771e-01 2.367859706282615662e-02
4.268908873200416565e-02 -4.197455197572708130e-02 -2.005419135093688965e-01
-2.123033702373504639e-01 1.219419911503791809e-01 -8.702732622623443604e-03
-3.512053564190864563e-02 6.505923345685005188e-03 2.086322456598281860e-01
1.107908189296722412e-01 -1.424863785505294800e-01 -1.127318739891052246e-01
8.559822291135787964e-02 7.924608141183853149e-02 2.089341580867767334e-01
2.067528963088989258e-01 1.357071399688720703e-01 9.056953713297843933e-04
1.770117878913879395e-01 1.421388685703277588e-01 1.029033064842224121e-01
1.793113946914672852e-01 1.370759010314941406e-01 1.118288040161132812e-01
-1.219413951039314270e-01 -9.211345762014389038e-02 9.314239025115966797e-02
-1.561612188816070557e-01 -3.274450451135635376e-02 -9.953722357749938965e-02
-1.450242400169372559e-01 7.848833501338958740e-02 -1.418639868497848511e-01
-1.899795532226562500e-01 1.212116256356239319e-01 -7.531618326902389526e-02
3.340371698141098022e-02 -1.733577102422714233e-01 1.172771826386451721e-01
-1.699448078870773315e-01 -2.103387191891670227e-02 1.788716763257980347e-03
1.317147463560104370e-01 5.624826252460479736e-02 -1.745331287384033203e-01
7.580139487981796265e-02 -9.707126021385192871e-02 1.379357874393463135e-01
-1.499828845262527466e-01 5.321435630321502686e-02 -1.268683671951293945e-01
-1.398982256650924683e-01 -2.821672335267066956e-02 -1.068658232688903809e-01
-1.752080172300338745e-01 6.628672778606414795e-02 -6.220029294490814209e-02
-1.222811415791511536e-01 -6.106346100568771362e-02 -1.051689609885215759e-01
-1.538022011518478394e-01 -6.516443938016891479e-02 7.826529908925294876e-04
-1.527663916349411011e-01 4.374550655484199524e-03 -5.319737643003463745e-02
-6.000481545925140381e-02 -1.111928448081016541e-01 1.337425112724304199e-01
-1.874746829271316528e-01 -4.924121871590614319e-02 -9.111887775361537933e-03
2.097569108009338379e-01 1.303556859493255615e-01 -4.705149680376052856e-02
-1.174986958503723145e-01 -2.033266723155975342e-01 -1.296450849622488022e-02
-6.481031328439712524e-02 1.853860765695571899e-01 -2.213862836360931396e-01
2.021752595901489258e-01 1.625711619853973389e-01 -5.996624007821083069e-02
-1.349212974309921265e-01 -1.927943229675292969e-01 4.930307343602180481e-02
9.102812409400939941e-02 -2.031331658363342285e-01 -1.139643639326095581e-01
-1.351002156734466553e-01 -5.113289877772331238e-02 1.178844198584556580e-01
9.452514350414276123e-02 1.555820405483245850e-01 -1.992479711771011353e-01
-1.394269019365310669e-01 1.667015403509140015e-01 1.280037909746170044e-01
1.263198852539062500e-01 2.032321877777576447e-03 -1.334880292415618896e-01
7.628076523542404175e-02 -1.612088531255722046e-01 -1.505448222160339355e-01
6.553430855274200439e-02 7.163453847169876099e-02 -2.067596912384033203e-01
-1.651615649461746216e-01 8.822250366210937500e-02 -1.076556146144866943e-01
-1.843078285455703735e-01 3.813298791646957397e-02 -1.092942245304584503e-02
-1.712761372327804565e-01 -1.157700121402740479e-01 5.054530873894691467e-02
9.913626313209533691e-02 -5.737732723355293274e-02 -1.666329503059387207e-01
6.647887080907821655e-02 -8.689726144075393677e-02 1.756253838539123535e-01
-1.774653345346450806e-01 -1.000996381044387817e-01 -3.622764348983764648e-02
-7.901894301176071167e-02 9.181828796863555908e-02 1.631983369588851929e-01
1.263986825942993164e-01 -1.836312413215637207e-01 -4.801343753933906555e-02
-1.330000162124633789e-02 -1.897889077663421631e-01 1.556878536939620972e-01
1.744807660579681396e-01 1.375458836555480957e-01 -1.302164942026138306e-01
2.240464538335800171e-01 -1.349510252475738525e-01 -1.731834560632705688e-02
-1.882067769765853882e-01 2.754709916189312935e-03 2.504180371761322021e-02
1.678193509578704834e-01 1.200693845748901367e-01 -1.489731669425964355e-01
-9.817914664745330811e-02 1.810032874345779419e-02 -1.789571642875671387e-01
-4.388398677110671997e-02 -4.177118837833404541e-02 -1.766057312488555908e-01
-2.115896493196487427e-01 1.685857921838760376e-01 5.849768221378326416e-02
-1.466490924358367920e-01 -1.859742254018783569e-01 -6.771922111511230469e-02
-1.223622728139162064e-02 1.567889302968978882e-01 -2.207443863153457642e-01
-4.488958790898323059e-02 -1.662236005067825317e-01 -3.105890937149524689e-02
-1.475577354431152344e-01 4.348690062761306763e-02 -1.162332370877265930e-01
1.514578312635421753e-01 1.792992949485778809e-01 1.528504639863967896e-01
1.863317787647247314e-01 -1.603707298636436462e-02 -5.904692783951759338e-02
-1.138221621513366699e-01 1.224915906786918640e-01 -1.661036908626556396e-01
-1.367901265621185303e-01 6.068834662437438965e-02 1.638898700475692749e-01
1.149360761046409607e-01 -5.826105922460556030e-02 1.249991953372955322e-01
1.624118238687515259e-01 4.886145144701004028e-02 -9.829442948102951050e-02
-1.945549398660659790e-01 2.162533439695835114e-02 1.484911888837814331e-02
1.779575645923614502e-01 -1.404864192008972168e-01 -2.182606421411037445e-02
-1.599000096321105957e-01 8.692962676286697388e-02 -5.603025481104850769e-02
2.681072801351547241e-04 1.132704131305217743e-02 -2.115517556667327881e-01
3.146756887435913086e-01 1.494998037815093994e-01 -1.638758182525634766e-02
1.732363998889923096e-01 1.327660679817199707e-01 -1.028238609433174133e-01
-1.140713989734649658e-01 5.237552523612976074e-02 -1.537498384714126587e-01
-1.164356544613838196e-01 -1.840105652809143066e-01 -5.513920634984970093e-02
-1.747656166553497314e-01 -9.555052220821380615e-02 1.068947836756706238e-03
1.687979102134704590e-01 4.199153557419776917e-02 -1.044890731573104858e-01
6.934367120265960693e-03 2.424873597919940948e-02 1.953192204236984253e-01
5.507300794124603271e-02 -2.060153037309646606e-01 -5.792709812521934509e-02
1.599493920803070068e-01 -1.386191248893737793e-01 5.740891024470329285e-02
-1.697507947683334351e-01 1.092963516712188721e-01 -1.060301214456558228e-01
-1.605990827083587646e-01 -1.469082981348037720e-01 -1.719273440539836884e-02
-1.551173776388168335e-01 -1.911633461713790894e-01 -2.070532366633415222e-02
-9.871895611286163330e-02 4.568737000226974487e-02 -1.676461398601531982e-01
-1.662232875823974609e-01 1.180006936192512512e-01 -4.586249217391014099e-02
-1.578174978494644165e-01 1.667643524706363678e-02 -1.084088534116744995e-01
-1.478797942399978638e-01 6.045921891927719116e-02 -1.235720217227935791e-01
-1.620638519525527954e-01 -1.781664043664932251e-01 -5.002655088901519775e-02
1.836128830909729004e-01 -3.405815362930297852e-02 9.091707319021224976e-02
2.033594995737075806e-02 -1.038398668169975281e-01 -1.871703118085861206e-01
7.784045487642288208e-02 -1.597302705049514771e-01 -1.751472055912017822e-01
6.149897724390029907e-02 9.257983416318893433e-02 -1.854911297559738159e-01
-3.216549009084701538e-02 -1.634435355663299561e-02 1.683053374290466309e-01
1.686574220657348633e-01 1.660925298929214478e-01 1.321199834346771240e-01
2.032378166913986206e-01 1.337931603193283081e-01 6.507895886898040771e-02
1.090173870325088501e-01 1.211651414632797241e-01 -2.102408707141876221e-01
-3.752417117357254028e-02 1.153962835669517517e-01 -2.208574116230010986e-01
2.100112140178680420e-01 1.786897927522659302e-01 6.866011768579483032e-02
-1.612035930156707764e-01 5.274467915296554565e-02 -1.048454269766807556e-01
1.030349880456924438e-01 -5.177697539329528809e-02 -1.196733564138412476e-01
1.169057413935661316e-01 1.131876707077026367e-01 1.763640791177749634e-01
1.838766485452651978e-01 1.450266689062118530e-01 -1.187634021043777466e-01
-1.184692829847335815e-01 -1.594079583883285522e-01 -1.127181351184844971e-01
-1.375192701816558838e-01 -1.038079261779785156e-01 -1.204410865902900696e-01
-8.063051104545593262e-02 -6.736650317907333374e-02 1.422438770532608032e-01
-1.755048483610153198e-01 4.622339457273483276e-02 1.054136604070663452e-01
-1.695895045995712280e-01 -1.636734306812286377e-01 8.115012198686599731e-03
2.075092345476150513e-01 1.794030219316482544e-01 7.857266068458557129e-02
1.288473606109619141e-01 1.640048921108245850e-01 -1.905919313430786133e-01
1.595029085874557495e-01 8.918011188507080078e-02 -9.722764790058135986e-02
-7.837066054344177246e-02 1.230133995413780212e-01 -1.980187594890594482e-01
-1.678523272275924683e-01 8.858079463243484497e-02 -1.312427669763565063e-01
-1.402004808187484741e-01 5.788315087556838989e-02 -1.422317624092102051e-01
1.202532351016998291e-01 6.467764079570770264e-02 -1.814916878938674927e-01
1.730617582798004150e-01 1.343479454517364502e-01 1.392629444599151611e-01
1.542782038450241089e-01 7.691194117069244385e-02 1.590517163276672363e-01
1.919345259666442871e-01 2.105772644281387329e-01 8.430035412311553955e-02
1.531012952327728271e-01 1.679029613733291626e-01 -1.813982874155044556e-01
-1.381397992372512817e-01 1.431777924299240112e-01 -1.758385151624679565e-01
-1.107154414057731628e-01 -4.677671939134597778e-03 1.321530938148498535e-01
1.360949873924255371e-01 -1.753769665956497192e-01 9.077150374650955200e-03
-1.629483997821807861e-01 -1.724684610962867737e-02 7.951367646455764771e-02
-7.877661287784576416e-02 -1.709824651479721069e-01 7.076775282621383667e-02
-2.138564437627792358e-01 1.238314583897590637e-01 -2.164524607360363007e-02
-1.875878572463989258e-01 1.568438112735748291e-02 -2.380763925611972809e-02
5.430286005139350891e-02 -1.851453818380832672e-02 1.974056363105773926e-01
2.011587470769882202e-01 4.179240018129348755e-02 -7.512744516134262085e-02
-1.519625782966613770e-01 4.789714887738227844e-02 -1.184992566704750061e-01
-2.241021580994129181e-02 -1.299992501735687256e-01 1.587186753749847412e-01
-1.700401306152343750e-01 1.354282349348068237e-01 1.647656783461570740e-02
2.051305025815963745e-02 -1.597308926284313202e-02 2.037563920021057129e-01
1.821111887693405151e-01 1.780565828084945679e-01 1.202413216233253479e-01
-1.944417059421539307e-01 1.176362335681915283e-01 -8.194289356470108032e-02
2.288373410701751709e-01 1.422166526317596436e-01 1.208909787237644196e-02
7.946208119392395020e-02 1.832300424575805664e-02 -1.870665252208709717e-01
-1.828179210424423218e-01 1.259695291519165039e-01 -8.046135306358337402e-02
1.701993197202682495e-01 -1.540988385677337646e-01 -5.728886276483535767e-02
1.666570007801055908e-01 7.831724733114242554e-02 -1.237098202109336853e-01
1.734003275632858276e-01 1.134529709815979004e-02 1.244398206472396851e-01
-1.369845122098922729e-01 -1.719620525836944580e-01 -6.621204316616058350e-02
-1.299490183591842651e-01 1.542487740516662598e-01 -1.580280214548110962e-01
-8.906852453947067261e-02 5.993170291185379028e-02 -1.874854266643524170e-01
1.696776896715164185e-01 1.395480334758758545e-01 1.556249111890792847e-01
1.689645349979400635e-01 4.197335243225097656e-02 1.208892241120338440e-01
1.053075194358825684e-01 2.493174374103546143e-02 -1.610407978296279907e-01
8.348656445741653442e-02 -2.110778093338012695e-01 -7.873953133821487427e-02
1.333815157413482666e-01 9.014301747083663940e-02 -1.803866624832153320e-01
2.078330963850021362e-01 1.237858086824417114e-01 4.888928309082984924e-02
1.926666647195816040e-01 7.466515991836786270e-03 1.032844930887222290e-02
-1.335604786872863770e-01 4.071465879678726196e-02 -1.541987806558609009e-01
-1.741696149110794067e-01 -2.576218731701374054e-02 -6.459156423807144165e-02
1.885010451078414917e-01 5.183626711368560791e-02 -6.875596474856138229e-03
-4.260733723640441895e-02 -1.646284312009811401e-01 -1.065339371562004089e-01
7.348895072937011719e-02 1.453684270381927490e-01 -1.861774176359176636e-01
-1.692302823066711426e-01 9.280911087989807129e-02 -1.123230382800102234e-01
1.257291734218597412e-01 5.375839769840240479e-02 -1.448647081851959229e-01
-1.846068948507308960e-01 1.237561255693435669e-01 -8.927752077579498291e-02
1.968620270490646362e-01 2.103281170129776001e-01 -9.210793673992156982e-02
1.438959091901779175e-01 -1.545967757701873779e-01 -1.113456040620803833e-01
1.222967058420181274e-01 1.514935344457626343e-01 -1.922166645526885986e-01
-1.503212153911590576e-01 4.927652701735496521e-02 -1.155773699283599854e-01
-1.300304085016250610e-01 -1.809297353029251099e-01 -1.039697043597698212e-02
-4.382652789354324341e-02 1.405523568391799927e-01 -2.248591631650924683e-01
7.575941830873489380e-02 -5.345140583813190460e-03 1.893200278282165527e-01
-1.585846543312072754e-01 9.035062044858932495e-02 -1.267000436782836914e-01
-1.748464256525039673e-01 -2.549102529883384705e-03 -7.326119393110275269e-02
-1.425946205854415894e-01 -1.502893567085266113e-01 -2.075805328786373138e-02
1.112929284572601318e-01 1.996235996484756470e-01 -1.611744016408920288e-01
-1.432821601629257202e-01 2.477621659636497498e-02 -1.237177923321723938e-01
-1.643763929605484009e-01 5.217648297548294067e-02 -9.887783974409103394e-02
-4.626104980707168579e-02 1.647438108921051025e-01 -2.166757136583328247e-01
-1.674058884382247925e-01 9.268338978290557861e-02 -4.060639068484306335e-03
-4.730305820703506470e-02 7.749217003583908081e-02 1.876651644706726074e-01
-3.495403006672859192e-02 -1.061373353004455566e-01 -1.088764518499374390e-01
-1.234649568796157837e-01 -2.048610299825668335e-01 5.821237340569496155e-02
-1.271456629037857056e-01 -1.823078542947769165e-01 -8.071624487638473511e-02
-7.311827503144741058e-03 -1.171934232115745544e-01 1.863951832056045532e-01
-2.860319567844271660e-03 1.318965256214141846e-01 2.214034497737884521e-01
-2.052613049745559692e-01 1.227078437805175781e-01 -2.956876717507839203e-02
-8.003878593444824219e-02 -1.956934183835983276e-01 1.147082820534706116e-01
-1.574057489633560181e-01 6.503070890903472900e-02 -1.365289688110351562e-01
1.186216101050376892e-01 1.106338649988174438e-01 -1.814660727977752686e-01
-1.336703598499298096e-01 5.146681517362594604e-02 -1.445657014846801758e-01
2.258398532867431641e-01 2.060962766408920288e-01 2.895558439195156097e-02
-1.540976911783218384e-01 5.847632512450218201e-02 -1.262046843767166138e-01
-1.621432155370712280e-01 5.108101665973663330e-02 -1.096068024635314941e-01
2.955245040357112885e-02 9.377463161945343018e-02 9.515799582004547119e-02
7.440889626741409302e-02 -3.387478366494178772e-02 -1.613628417253494263e-01
-1.852224916219711304e-01 9.755975008010864258e-02 -2.351544424891471863e-02
-8.778941631317138672e-02 -1.812848597764968872e-01 1.247217953205108643e-01
-1.884146630764007568e-01 1.858279667794704437e-02 -9.563056752085685730e-03
1.486249715089797974e-01 1.094028949737548828e-01 1.488265842199325562e-01
-1.535807400941848755e-01 3.221184015274047852e-02 -8.087226748466491699e-02
-1.658620685338973999e-01 4.576531797647476196e-02 -1.010438799858093262e-01
2.032035291194915771e-01 8.200114220380783081e-02 7.718491554260253906e-02
1.022665277123451233e-01 1.849970370531082153e-01 1.679176688194274902e-01
4.406889900565147400e-03 -1.425502300262451172e-01 1.803183257579803467e-01
-1.883521825075149536e-01 5.602774024009704590e-02 1.209054142236709595e-03
-3.715481236577033997e-02 -1.952966451644897461e-01 1.627280265092849731e-01
1.766432970762252808e-01 1.866149157285690308e-01 -1.399217545986175537e-01
-1.637166440486907959e-01 9.909698367118835449e-02 -9.306879341602325439e-02
1.715307980775833130e-01 -3.055748157203197479e-02 2.797378972172737122e-02
-6.286165863275527954e-02 1.523184031248092651e-01 2.024682164192199707e-01
-9.131500124931335449e-02 4.184634238481521606e-02 -1.692461818456649780e-01
-1.707312166690826416e-01 5.029311776161193848e-02 -9.482337534427642822e-02
-7.542409747838973999e-02 -3.303943574428558350e-02 -1.775593459606170654e-01
1.885870993137359619e-01 1.918876171112060547e-01 -1.256459206342697144e-01
-1.845677793025970459e-01 2.164807915687561035e-02 -3.431537747383117676e-02
1.973042497411370277e-03 -1.993229985237121582e-01 -1.569581031799316406e-01
-1.738309711217880249e-01 -3.249524161219596863e-03 -9.049008786678314209e-02
-1.844333112239837646e-01 5.105101317167282104e-02 -6.950248777866363525e-02
5.742764100432395935e-03 -1.328713633120059967e-02 -1.272537857294082642e-01
-1.210613846778869629e-01 -6.469360738992691040e-02 9.017290920019149780e-02
-9.680916368961334229e-02 -2.090099751949310303e-01 -3.231344744563102722e-02
3.688282519578933716e-02 6.208518892526626587e-02 2.186577767133712769e-01
4.308076202869415283e-02 2.340226620435714722e-02 -2.051785588264465332e-01
2.091851830482482910e-01 2.182288765907287598e-01 -7.020311057567596436e-02
-1.690824925899505615e-01 -3.575636819005012512e-02 3.078418970108032227e-02
2.575468644499778748e-02 -4.368156939744949341e-02 8.396323025226593018e-02
-1.073648408055305481e-01 7.413355261087417603e-02 -1.701171398162841797e-01
-6.439941376447677612e-02 -8.721973281353712082e-04 1.455812305212020874e-01
-8.696665614843368530e-02 -2.541479095816612244e-02 1.302187293767929077e-01
-5.490204319357872009e-03 -4.023865610361099243e-02 1.520742028951644897e-01
-2.116761356592178345e-02 -1.900820136070251465e-01 -1.618187725543975830e-01
-1.499916911125183105e-01 4.568373411893844604e-02 -1.118262484669685364e-01
3.593265712261199951e-01 1.212573796510696411e-01 3.416629508137702942e-02
1.439754217863082886e-01 -2.877194434404373169e-03 -1.300945430994033813e-01
-1.539833545684814453e-01 4.439414292573928833e-02 -9.947565197944641113e-02
-1.109144091606140137e-02 1.969313025474548340e-01 2.005918920040130615e-01
-1.813664734363555908e-01 1.275939214974641800e-02 -1.312567945569753647e-02
2.130441069602966309e-01 1.463775038719177246e-01 -6.489060819149017334e-02
1.641321629285812378e-01 4.133394360542297363e-02 -4.311798885464668274e-02
5.824843049049377441e-02 -7.125000655651092529e-02 -1.926969587802886963e-01
-7.934034615755081177e-02 2.117553949356079102e-01 -2.148552983999252319e-01
-2.000860571861267090e-01 7.062780112028121948e-02 -7.468502968549728394e-03
-1.676117032766342163e-01 -6.557342410087585449e-02 -7.129071652889251709e-02
-1.915424019098281860e-01 1.014984101057052612e-01 -8.789122849702835083e-02
-1.513787806034088135e-01 9.216195344924926758e-02 -1.195346564054489136e-01
-1.433374285697937012e-01 5.199953168630599976e-02 -1.360510587692260742e-01
5.611164495348930359e-02 -4.978878796100616455e-02 1.543771028518676758e-01
1.438455432653427124e-01 2.122568786144256592e-01 1.776846796274185181e-01
1.446018069982528687e-01 -6.264138966798782349e-02 4.434837773442268372e-02
-2.073564082384109497e-01 1.397906392812728882e-01 4.259356111288070679e-02
3.324443101882934570e-01 1.322757452726364136e-01 -1.390744466334581375e-03
8.135060966014862061e-02 5.575609207153320312e-02 -2.010862529277801514e-01
-1.637360453605651855e-01 -8.178903162479400635e-02 6.785604357719421387e-02
7.075691223144531250e-02 2.130815982818603516e-01 2.044403105974197388e-01
2.545452490448951721e-02 -2.010152041912078857e-01 5.449628829956054688e-02
3.230927288532257080e-01 -4.281245172023773193e-02 -3.764406591653823853e-02
-9.035818278789520264e-02 -1.593753844499588013e-01 -1.410364508628845215e-01
8.280394971370697021e-02 1.155820637941360474e-01 1.575680971145629883e-01
-1.606634259223937988e-01 6.379931420087814331e-02 -1.184265688061714172e-01
1.338377445936203003e-01 -1.706577539443969727e-01 -1.002996861934661865e-01
8.930676430463790894e-02 -5.398183595389127731e-03 -1.945796906948089600e-01
-1.458864510059356689e-01 4.988311603665351868e-02 -1.219593659043312073e-01
-1.780017316341400146e-01 -9.369784593582153320e-02 3.609115630388259888e-02
-5.126786977052688599e-02 -2.097017616033554077e-01 1.612725481390953064e-02
-6.048536300659179688e-02 4.374979436397552490e-02 -1.809323132038116455e-01
-1.833955943584442139e-01 1.008215174078941345e-01 -8.815710246562957764e-02
1.115743964910507202e-01 -6.823617033660411835e-03 1.276912540197372437e-01
-1.999837756156921387e-01 7.700369507074356079e-02 -1.702467678114771843e-03
-1.978601515293121338e-01 1.039835810661315918e-01 8.909162133932113647e-04
-1.900743544101715088e-01 1.365829706192016602e-01 7.839936017990112305e-02
4.520712792873382568e-02 -2.106570750474929810e-01 -2.179077826440334320e-02
-9.315630793571472168e-02 -1.871907562017440796e-01 -7.648567110300064087e-02
2.003788650035858154e-01 2.137191593647003174e-01 1.021941006183624268e-01
1.270124465227127075e-01 2.005619406700134277e-01 -1.843028217554092407e-01
1.159953549504280090e-01 1.595015227794647217e-01 1.844180524349212646e-01
1.566571295261383057e-01 -5.466677248477935791e-03 9.891095757484436035e-02
-1.753551214933395386e-01 -9.247624129056930542e-02 -5.514554679393768311e-03
-1.140833497047424316e-01 -2.726511843502521515e-02 1.058741584420204163e-01
-1.073793843388557434e-01 1.181935518980026245e-01 -1.762433499097824097e-01
-1.304596066474914551e-01 -1.082101091742515564e-01 1.276175826787948608e-01
1.421423107385635376e-01 5.349108576774597168e-02 1.369589716196060181e-01
-1.783812642097473145e-01 8.266730606555938721e-02 -1.023373380303382874e-01
1.419447660446166992e-01 2.107571512460708618e-01 -1.828557550907135010e-01
-1.742518991231918335e-01 9.169189259409904480e-03 -4.035590961575508118e-02
-1.995525062084197998e-01 1.251736879348754883e-01 -7.620632648468017578e-02
-1.651328802108764648e-01 4.235144332051277161e-02 -9.096673130989074707e-02
2.079979181289672852e-01 7.526819407939910889e-02 -6.008937582373619080e-02
-1.655876934528350830e-01 -1.624918282032012939e-01 -1.882178708910942078e-02
-9.458880126476287842e-02 -1.208315119147300720e-01 -1.170622259378433228e-01
-4.179091006517410278e-02 -1.438748538494110107e-01 -1.575518101453781128e-01
-1.708099693059921265e-01 7.281172275543212891e-02 1.123731955885887146e-02
-4.588400945067405701e-02 8.160902559757232666e-02 2.122246474027633667e-01
-2.121534645557403564e-01 8.180524408817291260e-02 1.945171691477298737e-02
-1.529475897550582886e-01 -1.670790761709213257e-01 2.195410057902336121e-02
1.635370701551437378e-01 3.547907620668411255e-02 -8.401566743850708008e-02
-1.118834540247917175e-01 1.785616278648376465e-01 -1.926102340221405029e-01
-1.256969273090362549e-01 -1.895019710063934326e-01 -9.362306445837020874e-02
1.397315561771392822e-01 -1.899129152297973633e-01 4.454060643911361694e-02
1.490425169467926025e-01 -4.202324897050857544e-02 1.472308486700057983e-01
-8.506043255329132080e-02 -1.764929667115211487e-02 -1.338235437870025635e-01
3.460523486137390137e-02 -2.075894922018051147e-01 1.227296367287635803e-01
-9.612120687961578369e-02 7.496193051338195801e-02 -1.758722662925720215e-01
1.080571021884679794e-02 6.573712825775146484e-02 -2.049388587474822998e-01
3.319264389574527740e-03 -2.076409608125686646e-01 -3.004524856805801392e-02
-1.581803411245346069e-01 -1.432117521762847900e-01 -1.872105896472930908e-02
-1.103576868772506714e-01 -2.370749972760677338e-02 -1.235469803214073181e-01
6.625761091709136963e-02 1.426154933869838715e-02 1.858495920896530151e-01
-1.868377029895782471e-01 2.231809310615062714e-02 6.391635630279779434e-03
-1.686841696500778198e-01 2.299869991838932037e-02 -7.736816257238388062e-02
-1.348664462566375732e-01 -1.249722689390182495e-01 -4.938034713268280029e-02
-1.450296193361282349e-01 5.247258394956588745e-02 -1.261764168739318848e-01
9.204180538654327393e-02 1.977654919028282166e-02 -1.763378679752349854e-01
-1.432381570339202881e-01 -8.505179546773433685e-03 1.132246702909469604e-01
-1.562716811895370483e-01 1.662389039993286133e-01 -1.200386434793472290e-01
1.541520804166793823e-01 1.619074642658233643e-01 -1.410314291715621948e-01
6.348264217376708984e-02 1.537166088819503784e-01 -4.824556782841682434e-02
1.860962510108947754e-01 1.350711584091186523e-01 1.045967638492584229e-01
1.297110766172409058e-01 1.037413552403450012e-01 -1.645117849111557007e-01
2.956822514533996582e-01 1.425347924232482910e-01 1.875409297645092010e-02
-1.983722448348999023e-01 1.100531667470932007e-01 5.206048488616943359e-03
-1.861999630928039551e-01 3.814632073044776917e-02 -1.566558144986629486e-02
-1.130208820104598999e-01 -2.213158831000328064e-02 -1.493808478116989136e-01
1.952351480722427368e-01 4.006978869438171387e-02 4.407653957605361938e-02
-1.535346060991287231e-01 1.951667070388793945e-01 -1.793528646230697632e-01
-4.866568744182586670e-02 4.893097653985023499e-02 2.019086331129074097e-01
-1.564660817384719849e-01 -1.565091758966445923e-01 3.323282301425933838e-02
4.027710109949111938e-02 -1.243786141276359558e-01 1.807794421911239624e-01
-1.497568786144256592e-01 3.336050361394882202e-02 -1.280347555875778198e-01
5.495509132742881775e-03 1.077358797192573547e-01 -2.114163190126419067e-01
-1.095340922474861145e-01 -4.810927435755729675e-02 1.595237702131271362e-01
1.850027590990066528e-01 2.079816758632659912e-01 3.043530136346817017e-02
-1.652352660894393921e-01 -1.197788491845130920e-01 -4.087499156594276428e-02
3.802247717976570129e-02 1.783681809902191162e-01 1.802088022232055664e-01
1.200912818312644958e-01 -1.088678389787673950e-01 -1.238657385110855103e-01
-6.432912498712539673e-02 1.399885267019271851e-01 2.069119215011596680e-01
6.800103932619094849e-02 -6.376591324806213379e-02 -1.552045494318008423e-01
1.297309696674346924e-01 1.582347154617309570e-01 -1.866938322782516479e-01
-1.783267855644226074e-01 2.899357303977012634e-02 -8.823885582387447357e-03
-1.848594844341278076e-01 1.962681859731674194e-02 -2.897838875651359558e-02
-1.419940888881683350e-01 -1.387339085340499878e-01 5.795212090015411377e-02
-1.897197514772415161e-01 7.950527220964431763e-02 -6.387043744325637817e-02
1.902434229850769043e-01 1.518500894308090210e-01 -3.525159507989883423e-02
1.280573159456253052e-01 -3.039151243865489960e-02 -1.177973002195358276e-01
-1.034677475690841675e-01 -2.173247933387756348e-02 -1.673038452863693237e-01
-1.325137317180633545e-01 -1.726938486099243164e-01 3.167212009429931641e-03
-1.550776064395904541e-01 -1.662029623985290527e-01 -3.903899341821670532e-02
-1.236910000443458557e-03 2.665863558650016785e-02 1.876535415649414062e-01
1.622375547885894775e-01 1.831158399581909180e-01 1.493324935436248779e-01
-2.019058465957641602e-01 1.341760903596878052e-01 -6.400685757398605347e-02
1.393078267574310303e-01 -1.494248807430267334e-01 -5.732484906911849976e-02
-1.920716464519500732e-01 1.645331829786300659e-01 -3.891851752996444702e-03
-2.132802158594131470e-01 1.639909148216247559e-01 -2.294030413031578064e-02
-1.973588466644287109e-01 1.010341197252273560e-01 -4.514515399932861328e-02
-2.311901748180389404e-01 1.652247905731201172e-01 -3.109789267182350159e-02
1.442724913358688354e-01 -1.714253574609756470e-01 -1.040613353252410889e-01
1.278818100690841675e-01 1.310961842536926270e-01 -1.530987918376922607e-01
-1.531470865011215210e-01 -1.199055463075637817e-01 7.821534574031829834e-02
-7.831018418073654175e-02 2.271186113357543945e-01 -1.803482025861740112e-01
3.421310782432556152e-01 1.534947901964187622e-01 -4.221799969673156738e-02
-9.956131875514984131e-02 2.383634261786937714e-02 -1.738910973072052002e-01
1.531763225793838501e-01 2.060243785381317139e-01 -1.599347889423370361e-01
-1.745341122150421143e-01 -9.975377470254898071e-02 -4.775092005729675293e-02
4.046987369656562805e-02 3.214005380868911743e-02 -1.817130148410797119e-01
-3.928474336862564087e-02 1.269859261810779572e-02 -1.894957721233367920e-01
5.907625705003738403e-02 6.882812082767486572e-02 -2.117016166448593140e-01
1.266293674707412720e-01 -3.199356794357299805e-02 1.082170233130455017e-01
-1.818914860486984253e-01 2.049985900521278381e-02 -2.810916490852832794e-02
1.113636717200279236e-01 -1.763883978128433228e-01 -1.111574470996856689e-01
-1.930486112833023071e-01 3.258497267961502075e-02 -5.136299133300781250e-02
-1.864944249391555786e-01 -3.073620796203613281e-02 -2.987182699143886566e-02
-6.409364938735961914e-02 2.320029214024543762e-02 -1.910305321216583252e-01
4.017915204167366028e-02 -1.830846667289733887e-01 -1.586520373821258545e-01
1.750904172658920288e-01 1.827970147132873535e-01 1.366304308176040649e-01
-3.740725666284561157e-02 1.273849159479141235e-01 -1.750824451446533203e-01
2.194015383720397949e-01 1.822790503501892090e-01 2.886708825826644897e-02
1.374341845512390137e-01 -7.944416254758834839e-02 -9.881874173879623413e-02
1.617446541786193848e-01 -5.060245841741561890e-02 1.047013401985168457e-01
-2.133466601371765137e-01 1.539084166288375854e-01 -1.595417968928813934e-02
-1.235019862651824951e-01 -1.639662384986877441e-01 1.135292053222656250e-01
-8.065927028656005859e-02 1.108754873275756836e-01 -1.822803914546966553e-01
-4.893017560243606567e-02 7.548464089632034302e-02 -1.834413111209869385e-01
-1.451957225799560547e-01 -3.439193218946456909e-02 1.036750897765159607e-01
1.486723273992538452e-01 -6.810610741376876831e-02 -1.178511083126068115e-01
9.663550555706024170e-02 1.628913730382919312e-01 -1.618601828813552856e-01
-1.222074106335639954e-01 6.126533821225166321e-02 -1.496089845895767212e-01
-1.939672827720642090e-01 1.720400750637054443e-01 -1.244944855570793152e-01
-6.381668150424957275e-02 1.578321456909179688e-01 -1.050267368555068970e-01
-1.032990366220474243e-01 -6.862237304449081421e-02 1.155992001295089722e-01
-1.201194897294044495e-01 -1.889585256576538086e-01 4.517909511923789978e-02
1.400319933891296387e-01 1.639294624328613281e-01 -1.675823181867599487e-01
2.144227474927902222e-01 1.593918204307556152e-01 3.932558745145797729e-02
1.721014976501464844e-01 1.724739074707031250e-01 -1.408033221960067749e-01
6.356125324964523315e-02 7.226636633276939392e-03 -1.739139407873153687e-01
-1.722002178430557251e-01 9.255202114582061768e-02 -1.023437157273292542e-01
3.327415883541107178e-02 7.707162201404571533e-02 -2.208859473466873169e-01
-1.179635897278785706e-02 1.561144292354583740e-01 2.277977466583251953e-01
-1.238635927438735962e-01 -1.910523176193237305e-01 -6.607373058795928955e-02
2.319609820842742920e-01 1.902783215045928955e-01 -4.619985073804855347e-02
-9.993644058704376221e-02 -6.682169437408447266e-02 -1.311141699552536011e-01
-6.032171100378036499e-02 -1.821668148040771484e-01 4.406026378273963928e-02
1.262627393007278442e-01 2.182996459305286407e-02 -1.538588106632232666e-01
7.965163141489028931e-02 -8.494860678911209106e-02 1.534250676631927490e-01
-1.322127506136894226e-02 4.193365946412086487e-02 -2.012720108032226562e-01
-1.705154627561569214e-01 1.020900607109069824e-01 5.657698959112167358e-02
2.060887217521667480e-01 9.740488231182098389e-02 2.450960688292980194e-03
-7.202068343758583069e-03 1.328081488609313965e-01 1.920326650142669678e-01
-1.417246907949447632e-01 -1.815961748361587524e-01 -8.012327551841735840e-02
-1.581966727972030640e-01 5.808528885245323181e-02 -1.111526861786842346e-01
2.410025149583816528e-01 2.173268198966979980e-01 -8.505094796419143677e-03
1.899388730525970459e-01 7.805337756872177124e-02 -3.606296330690383911e-02
-1.490878015756607056e-01 -1.738207191228866577e-01 1.001481637358665466e-01
5.312155932188034058e-02 -2.076795101165771484e-01 3.841060400009155273e-02
-1.616280078887939453e-01 4.890390485525131226e-02 -1.072661876678466797e-01
2.440255694091320038e-02 1.869330108165740967e-01 -2.354105263948440552e-01
2.060663998126983643e-01 4.618822038173675537e-02 1.265555992722511292e-02
1.034259945154190063e-01 3.566131368279457092e-02 -1.660861968994140625e-01
-1.454135924577713013e-01 2.693946845829486847e-02 -1.333057135343551636e-01
8.818003535270690918e-02 6.472501158714294434e-02 -1.810928434133529663e-01
-1.011092662811279297e-01 4.095306247472763062e-02 -1.614276617765426636e-01
4.203719645738601685e-02 9.773316979408264160e-02 -9.413674473762512207e-02
1.078183948993682861e-01 -1.894218921661376953e-01 -2.652581036090850830e-02
2.137628644704818726e-01 1.878060102462768555e-01 -7.098571956157684326e-02
1.407375633716583252e-01 -1.301194876432418823e-01 7.802079617977142334e-02
-1.811508685350418091e-01 2.053546160459518433e-01 -3.715956956148147583e-02
-1.508280038833618164e-01 9.479483962059020996e-02 -1.643787771463394165e-01
2.236852645874023438e-01 1.103954464197158813e-01 4.015338420867919922e-02
-6.537196040153503418e-02 -1.969173252582550049e-01 1.512242853641510010e-01
-1.812625378370285034e-01 -5.192949995398521423e-02 1.992476359009742737e-02
-2.113731950521469116e-02 -1.248204931616783142e-01 -1.644091308116912842e-01
1.139339581131935120e-01 -2.023311108350753784e-01 -8.096431940793991089e-02
-8.995854854583740234e-02 -1.939840167760848999e-01 -6.967524439096450806e-02
2.257398962974548340e-01 1.136286854743957520e-01 -6.003636866807937622e-03
-9.489066153764724731e-02 3.409947082400321960e-02 -1.628626734018325806e-01
-2.063309550285339355e-01 8.339272439479827881e-02 1.944776065647602081e-02
-1.854566931724548340e-01 -7.042820751667022705e-02 -6.827992945909500122e-02
1.042766124010086060e-01 -9.012454003095626831e-02 1.266500949859619141e-01
1.504119187593460083e-01 5.638740211725234985e-02 1.172116622328758240e-01
-1.550080031156539917e-01 5.336035043001174927e-02 -1.147391647100448608e-01
-3.357588499784469604e-02 8.165191113948822021e-02 -1.813104599714279175e-01
1.095029711723327637e-01 -1.690706908702850342e-01 -3.109592013061046600e-02
1.840533763170242310e-01 -1.468185335397720337e-02 -8.378534764051437378e-02
1.388201713562011719e-01 -4.703551158308982849e-02 -1.328020989894866943e-01
5.221662297844886780e-02 -1.817832887172698975e-02 -2.001721411943435669e-01
-1.630502641201019287e-01 6.340522319078445435e-02 -1.067298501729965210e-01
-1.974674463272094727e-01 6.250976026058197021e-02 2.569334022700786591e-02
7.327738404273986816e-02 8.650638908147811890e-02 -1.974571198225021362e-01
3.068798035383224487e-02 -5.568886548280715942e-02 -1.746989190578460693e-01
-2.073184549808502197e-01 5.874146148562431335e-02 -1.029380597174167633e-02
1.937902718782424927e-01 1.147609949111938477e-01 8.627920597791671753e-02
1.858297288417816162e-01 4.097720235586166382e-02 -3.872474655508995056e-03
-6.642767041921615601e-02 -1.928046941757202148e-01 -8.947471529245376587e-02
7.512307167053222656e-02 -1.680521070957183838e-01 1.632381975650787354e-01
1.764419078826904297e-01 1.776567399501800537e-01 9.254968911409378052e-02
1.191504448652267456e-01 -2.516826242208480835e-02 1.502335220575332642e-01
-1.259812992066144943e-02 -2.005895525217056274e-01 1.277682036161422729e-01
8.966976404190063477e-02 -1.757367700338363647e-01 -1.305813640356063843e-01
4.714470356702804565e-03 -2.095648795366287231e-01 1.187946796417236328e-01
1.196060702204704285e-01 6.601017713546752930e-02 1.505149453878402710e-01
8.891562372446060181e-02 1.736736670136451721e-02 1.918794512748718262e-01
3.417496979236602783e-01 1.799134165048599243e-01 -9.435265325009822845e-03
2.534839883446693420e-02 4.634173586964607239e-02 1.611462533473968506e-01
1.231697723269462585e-01 1.712612658739089966e-01 1.798825711011886597e-01
4.046431183815002441e-02 1.457252353429794312e-01 2.203830331563949585e-01
-1.602564007043838501e-01 7.724252343177795410e-02 -1.175785064697265625e-01
-1.920883357524871826e-01 -2.498245239257812500e-02 1.536051277071237564e-02
-1.761725395917892456e-01 -1.086728200316429138e-01 8.358247578144073486e-04
1.120159402489662170e-01 -2.084896862506866455e-01 -5.545247718691825867e-02
-1.855518966913223267e-01 5.477871000766754150e-02 -7.359517365694046021e-02
-1.548563539981842041e-01 -7.396785169839859009e-02 -6.321424990892410278e-02
1.740360110998153687e-01 1.535617411136627197e-01 1.216329783201217651e-01
-1.174591705203056335e-01 -9.135671705007553101e-02 -1.521500051021575928e-01
-4.212005063891410828e-03 -1.792330145835876465e-01 9.627521038055419922e-02
6.662962585687637329e-02 -1.080536618828773499e-01 -1.644072681665420532e-01
8.839618414640426636e-02 -1.653252989053726196e-01 -1.014472991228103638e-01
2.033561915159225464e-01 6.947436928749084473e-02 -2.832753024995326996e-02
1.510347127914428711e-01 2.194707095623016357e-02 -1.457315683364868164e-01
1.113225705921649933e-02 -1.905857622623443604e-01 1.210718154907226562e-01
-7.627770304679870605e-02 1.225899308919906616e-01 1.917062401771545410e-01
-1.871723085641860962e-01 3.243460506200790405e-02 5.282201245427131653e-02
1.157513856887817383e-01 -4.094969108700752258e-02 1.472012698650360107e-01
-8.356644213199615479e-02 1.053794026374816895e-01 -1.863451600074768066e-01
-1.322077065706253052e-01 1.194748058915138245e-01 -1.638490557670593262e-01
-1.494693458080291748e-01 -5.183620750904083252e-02 7.936156541109085083e-02
-1.809130012989044189e-01 4.166312143206596375e-02 -4.573420435190200806e-02
2.080394476652145386e-01 6.295790523290634155e-02 2.298056893050670624e-02
-5.851266160607337952e-02 -6.232994422316551208e-02 -1.710091382265090942e-01
-1.942772567272186279e-01 -1.104395836591720581e-03 4.211020469665527344e-02
-1.810844838619232178e-01 1.350284218788146973e-01 -9.939872473478317261e-02
2.029555886983871460e-01 9.318990260362625122e-02 7.052262127399444580e-02
-1.750785410404205322e-01 -2.916789427399635315e-02 -6.144293025135993958e-02
-1.539801061153411865e-01 -4.625362157821655273e-02 -9.618733823299407959e-02
1.685677170753479004e-01 1.588070094585418701e-01 6.356181204319000244e-02
1.042327061295509338e-01 1.460170745849609375e-01 1.957090646028518677e-01
9.194032847881317139e-02 -1.738494038581848145e-01 1.229439973831176758e-01
-2.083635628223419189e-01 1.525425910949707031e-01 -4.802387580275535583e-02
-1.732084602117538452e-01 1.916219107806682587e-02 -9.551646560430526733e-02
-1.850535273551940918e-01 5.401897802948951721e-02 -3.692393377423286438e-02
-1.673979163169860840e-01 6.295620650053024292e-02 -1.136069372296333313e-01
1.340232491493225098e-01 1.758463382720947266e-01 -1.275472640991210938e-01
1.979174315929412842e-01 1.105046868324279785e-01 6.168436631560325623e-02
-1.004527416080236435e-02 1.141147911548614502e-01 2.081449776887893677e-01
5.988471210002899170e-03 -1.461297422647476196e-01 -1.691641956567764282e-01
-1.062655746936798096e-01 2.591754682362079620e-02 1.505877673625946045e-01
1.349584013223648071e-01 -9.815993160009384155e-02 8.860366046428680420e-02
-1.778720319271087646e-01 -9.526167064905166626e-02 -5.691338703036308289e-02
-1.752163022756576538e-01 2.331287600100040436e-02 3.374778479337692261e-02
1.001839935779571533e-01 1.156353652477264404e-01 -1.960721164941787720e-01
1.779288351535797119e-01 1.799990534782409668e-01 -1.190795749425888062e-01
-1.830234676599502563e-01 1.837698072195053101e-01 1.206874176859855652e-01
-8.442054688930511475e-02 -1.152439713478088379e-01 -1.538249999284744263e-01
-9.280814230442047119e-02 5.568944290280342102e-02 -1.729284375905990601e-01
-2.226607650518417358e-01 1.892021447420120239e-01 -4.301346465945243835e-02
7.089305669069290161e-02 1.573478877544403076e-01 2.194636017084121704e-01
1.683568954467773438e-01 6.672737747430801392e-02 -1.452637612819671631e-01
1.735783666372299194e-01 2.452592737972736359e-02 1.059144735336303711e-02
1.541736423969268799e-01 5.439721513539552689e-03 -1.362948864698410034e-01
1.391372531652450562e-01 -1.859868764877319336e-01 9.376964718103408813e-02
-1.666879951953887939e-01 -1.702002584934234619e-01 -2.856072783470153809e-02
2.177002131938934326e-01 2.033260911703109741e-01 -3.314927965402603149e-02
8.444033563137054443e-02 -2.099552005529403687e-01 8.662190288305282593e-02
2.144614458084106445e-01 1.026167050004005432e-01 -5.337008088827133179e-02
1.703956276178359985e-01 1.148526147007942200e-01 1.057391539216041565e-01
-1.207897067070007324e-01 -1.400799304246902466e-01 -1.022353619337081909e-01
-1.751347333192825317e-01 3.266862779855728149e-02 -6.887390464544296265e-02
1.621194481849670410e-01 -9.429178386926651001e-02 9.903948009014129639e-02
1.795745640993118286e-02 1.766519546508789062e-01 2.207540273666381836e-01
-1.821605712175369263e-01 1.847771108150482178e-01 -1.047331988811492920e-01
-6.135373190045356750e-02 -4.513554275035858154e-02 -1.924026161432266235e-01
1.930394619703292847e-01 5.126948654651641846e-02 -6.866985559463500977e-02
-1.563508510589599609e-01 -1.524446755647659302e-01 7.662073522806167603e-02
2.166713960468769073e-02 -2.113025635480880737e-01 1.667008548974990845e-02
7.778545469045639038e-02 2.134400904178619385e-01 1.784875690937042236e-01
-1.480162143707275391e-01 -5.731165409088134766e-02 4.992472380399703979e-02
1.596035808324813843e-01 1.397086530923843384e-01 -1.580853760242462158e-01
-1.809762269258499146e-01 -7.700046896934509277e-02 -2.212188765406608582e-02
-6.771454960107803345e-02 1.642061173915863037e-01 2.053069621324539185e-01
-1.436217278242111206e-01 2.197838574647903442e-01 -1.475180089473724365e-01
1.910227835178375244e-01 6.184681132435798645e-02 5.331365019083023071e-02
-1.573598533868789673e-01 5.796467512845993042e-02 -1.272436082363128662e-01
-1.890604346990585327e-01 -1.332529075443744659e-02 -1.560520287603139877e-02
-9.106449782848358154e-02 1.590626388788223267e-01 -2.074720263481140137e-01
-5.704223643988370895e-03 3.973252326250076294e-02 -2.017519474029541016e-01
1.248274743556976318e-01 -2.044351249933242798e-01 -4.230789840221405029e-03
2.699120938777923584e-01 1.329787224531173706e-01 -2.629879303276538849e-02
6.459722667932510376e-02 -3.630542755126953125e-02 1.808995008468627930e-01
-1.874177753925323486e-01 7.893819361925125122e-02 8.031310141086578369e-02
-1.517498195171356201e-01 2.449350245296955109e-02 -1.102391928434371948e-01
-1.367291714996099472e-02 1.851763129234313965e-01 1.640857607126235962e-01
-9.542670845985412598e-02 -1.958597749471664429e-01 9.617932140827178955e-02
-9.809870272874832153e-02 7.608127593994140625e-02 1.842930912971496582e-01
-3.129606321454048157e-02 -4.460606724023818970e-02 -1.999186575412750244e-01
2.119816467165946960e-02 1.202025562524795532e-01 1.884259581565856934e-01
-1.717246323823928833e-01 4.561458528041839600e-02 -8.501449972391128540e-02
-4.085387662053108215e-02 -7.450169324874877930e-02 -1.977081000804901123e-01
-1.594156473875045776e-01 9.424278885126113892e-02 -1.081703826785087585e-01
1.861297786235809326e-01 2.966883964836597443e-02 6.181113421916961670e-02
1.016063392162322998e-01 1.297022104263305664e-01 1.752908378839492798e-01
-1.531988382339477539e-01 1.689283102750778198e-01 -1.511927694082260132e-01
3.737069666385650635e-01 5.767577886581420898e-02 -3.770779073238372803e-02
-1.595130264759063721e-01 -8.810314536094665527e-02 4.572700336575508118e-02
1.852475106716156006e-01 -4.134350270032882690e-02 5.192175880074501038e-02
-5.053230375051498413e-02 1.262418180704116821e-01 2.040101438760757446e-01
1.783459335565567017e-01 1.041386723518371582e-01 -1.148946061730384827e-01
1.316393762826919556e-01 9.397999942302703857e-02 -1.445080339908599854e-01
-2.058876901865005493e-01 1.508186608552932739e-01 1.697703450918197632e-02
9.846521914005279541e-02 1.105110943317413330e-01 -1.643998473882675171e-01
2.049773782491683960e-01 -1.400657296180725098e-01 5.153426900506019592e-03
-1.901492476463317871e-01 7.517697662115097046e-02 -1.062014047056436539e-02
-1.870947182178497314e-01 -6.153980270028114319e-02 5.913903936743736267e-03
-1.739938259124755859e-01 9.374621510505676270e-02 -8.493223786354064941e-02
-7.394960522651672363e-02 -7.049632072448730469e-02 -1.508426815271377563e-01
-1.803937107324600220e-01 1.675154268741607666e-01 -1.324781030416488647e-01
-1.767383813858032227e-01 -8.267109096050262451e-02 -1.459505688399076462e-02
-1.686434000730514526e-01 -1.009513437747955322e-01 -1.258713752031326294e-02
4.997947253286838531e-03 -8.297910541296005249e-02 1.786941587924957275e-01
-7.994616031646728516e-02 8.253825455904006958e-02 -1.664943695068359375e-01
-4.374635219573974609e-02 -1.687154322862625122e-01 -1.422743350267410278e-01
-1.870504021644592285e-01 1.395690888166427612e-01 -1.107431501150131226e-01
1.341653019189834595e-01 -3.175547346472740173e-02 -1.474251151084899902e-01
-1.483727842569351196e-01 -4.327607899904251099e-02 -1.163529604673385620e-01
