-1.349017322063446045e-01 -9.287504106760025024e-02 -7.236479222774505615e-02
-2.251441180706024170e-01 2.357772924005985260e-02 -1.201866492629051208e-01
-1.304343789815902710e-01 -2.066673897206783295e-02 -1.686675399541854858e-01
-1.129670366644859314e-01 1.487101893872022629e-02 -2.103761881589889526e-01
-1.463343203067779541e-01 6.083714962005615234e-02 -2.381975948810577393e-01
2.769241034984588623e-01 7.639610022306442261e-02 7.823196798563003540e-02
7.147373259067535400e-02 -8.866219967603683472e-02 1.205917894840240479e-01
9.021426737308502197e-02 -1.499983668327331543e-01 -1.336745731532573700e-02
1.760075539350509644e-01 -3.141139447689056396e-02 -1.074100434780120850e-01
-3.759939223527908325e-02 8.889371901750564575e-02 -3.021657466888427734e-01
-3.254881203174591064e-01 1.580779403448104858e-01 2.550568617880344391e-02
6.778433173894882202e-02 -7.538020610809326172e-02 -1.557051092386245728e-01
-1.706103831529617310e-01 9.322845190763473511e-02 2.502309978008270264e-01
3.031266927719116211e-01 1.209092289209365845e-01 7.106495648622512817e-02
-1.834895610809326172e-01 1.253908574581146240e-01 -2.400030046701431274e-01
-2.772156149148941040e-02 -5.899859964847564697e-02 -1.802864819765090942e-01
3.034432828426361084e-01 1.391198486089706421e-01 -1.279066950082778931e-01
2.567472457885742188e-01 2.890583686530590057e-02 -1.612587273120880127e-02
-4.325763136148452759e-02 -1.224558949470520020e-01 2.217214182019233704e-02
-1.056372374296188354e-01 -1.032171174883842468e-01 1.112218946218490601e-03
1.309249550104141235e-01 -1.587817445397377014e-02 -1.948317438364028931e-01
-2.841961979866027832e-01 1.343353390693664551e-01 -1.380999982357025146e-01
-1.359018683433532715e-01 -3.141574561595916748e-03 -1.812745183706283569e-01
1.968836933374404907e-01 1.170568615198135376e-01 2.125271111726760864e-01
-2.105170041322708130e-01 6.448238156735897064e-03 1.333951056003570557e-01
2.399526387453079224e-01 6.000772118568420410e-02 7.291512191295623779e-02
-1.711321920156478882e-01 8.071900904178619385e-02 -2.182184606790542603e-01
1.064134985208511353e-01 1.517315357923507690e-01 -2.902743518352508545e-01
-2.453125417232513428e-01 5.423729121685028076e-02 -1.205904036760330200e-01
-2.799362242221832275e-01 1.367674022912979126e-01 -1.289323121309280396e-01
1.630810946226119995e-01 2.957438677549362183e-02 1.989754438400268555e-01
-2.869374155998229980e-01 9.371971338987350464e-02 -9.083095192909240723e-02
-3.020187020301818848e-01 1.167059838771820068e-01 4.940850660204887390e-02
-3.569160029292106628e-02 6.509611755609512329e-02 -2.769734859466552734e-01
-7.212996482849121094e-02 -4.543723538517951965e-03 -2.024355083703994751e-01
8.034947514533996582e-02 -1.154784560203552246e-01 -8.124417811632156372e-02
4.287358373403549194e-02 -3.147094696760177612e-02 2.195882201194763184e-01
-1.713206171989440918e-01 4.326415061950683594e-02 -1.385871469974517822e-01
-2.216885536909103394e-01 9.679747372865676880e-02 -2.019778192043304443e-01
-2.834184467792510986e-01 6.822396814823150635e-02 5.546231940388679504e-02
2.210566997528076172e-01 1.073791272938251495e-02 -1.054133847355842590e-01
4.353557527065277100e-02 1.554129123687744141e-01 -3.186967968940734863e-01
-2.607071697711944580e-01 4.755958914756774902e-02 1.034976989030838013e-01
-2.198620736598968506e-01 5.955987796187400818e-02 -1.738366335630416870e-01
1.401479989290237427e-01 1.397747546434402466e-02 -1.543996781110763550e-01
-2.489775717258453369e-01 4.198228940367698669e-02 -1.092481687664985657e-01
-9.209331125020980835e-02 -1.209798604249954224e-01 -3.148604929447174072e-02
-2.954719066619873047e-01 1.150400042533874512e-01 -5.834080651402473450e-02
-1.138483285903930664e-01 9.557128697633743286e-02 -2.735807299613952637e-01
4.390689730644226074e-02 -9.052338451147079468e-02 -1.366654932498931885e-01
-1.570944190025329590e-01 1.321955621242523193e-01 2.695722877979278564e-01
-1.374753564596176147e-02 -5.056725442409515381e-02 2.028431296348571777e-01
-1.539614349603652954e-01 -9.875032305717468262e-02 -2.875268831849098206e-02
6.513986736536026001e-02 -1.403396129608154297e-01 6.779678165912628174e-02
5.300441384315490723e-02 -1.239812001585960388e-01 2.731252275407314301e-02
-9.912063181400299072e-02 -4.316627979278564453e-02 -1.726580262184143066e-01
2.460419088602066040e-01 2.539812587201595306e-02 -3.253762423992156982e-02
-4.477472603321075439e-02 5.378731340169906616e-02 -2.832871973514556885e-01
-3.058445751667022705e-01 9.040233492851257324e-02 -1.491491124033927917e-02
1.181766390800476074e-01 3.089565411210060120e-02 -2.405856549739837646e-01
-2.115276455879211426e-02 3.079978376626968384e-02 2.253422737121582031e-01
-2.489359378814697266e-01 6.650511175394058228e-02 -1.292286813259124756e-01
2.138005942106246948e-01 1.023822184652090073e-02 -1.447526216506958008e-01
-3.239461481571197510e-01 1.476493924856185913e-01 5.416896566748619080e-02
-2.908617556095123291e-01 1.101157441735267639e-01 1.230767183005809784e-02
-2.819415330886840820e-01 1.661099493503570557e-01 -1.470898091793060303e-01
3.733654320240020752e-02 1.236437633633613586e-01 -2.883992493152618408e-01
-1.741939038038253784e-01 5.581796169281005859e-02 -2.242508828639984131e-01
-2.051137387752532959e-01 8.487929403781890869e-02 -2.105435431003570557e-01
9.394154697656631470e-02 4.282228648662567139e-03 -2.194596379995346069e-01
-2.540253996849060059e-01 9.269888699054718018e-02 1.709151715040206909e-01
2.168681919574737549e-01 2.768308110535144806e-02 2.998265065252780914e-02
-2.960672676563262939e-01 9.119610488414764404e-02 2.456399053335189819e-02
1.089561171829700470e-02 1.234541386365890503e-01 2.907553315162658691e-01
1.824935972690582275e-01 5.345195531845092773e-02 2.281228005886077881e-01
2.206166237592697144e-01 1.115970760583877563e-01 1.891474425792694092e-01
3.134637475013732910e-01 8.920650184154510498e-02 1.077357679605484009e-02
-9.875252842903137207e-02 -8.582771569490432739e-02 1.333915144205093384e-01
2.663238942623138428e-01 1.049251109361648560e-01 3.107564151287078857e-02
8.015725016593933105e-02 -5.589010566473007202e-02 -1.704986691474914551e-01
2.786961793899536133e-01 1.014414802193641663e-01 8.038954436779022217e-02
-1.545732319355010986e-01 -9.511859714984893799e-02 -3.700958937406539917e-02
-7.420723140239715576e-02 1.274106800556182861e-01 -3.028424680233001709e-01
-8.109025657176971436e-02 8.968157321214675903e-02 -2.818199992179870605e-01
2.357861399650573730e-01 3.151981905102729797e-02 9.116824716329574585e-02
1.206948459148406982e-01 7.227636873722076416e-02 -2.105283737182617188e-01
2.954110205173492432e-01 1.011549532413482666e-01 4.591289162635803223e-02
-2.463621199131011963e-01 4.254490137100219727e-02 -9.784153103828430176e-02
-2.453075498342514038e-01 5.335149168968200684e-02 -1.419963091611862183e-01
1.118718832731246948e-01 8.785717189311981201e-02 -2.935928702354431152e-01
2.866495251655578613e-01 1.298782378435134888e-01 1.663953959941864014e-01
-2.822595834732055664e-01 5.839238315820693970e-02 1.040550135076045990e-02
1.842830479145050049e-01 1.288167983293533325e-01 2.377687543630599976e-01
2.123876810073852539e-01 1.146721765398979187e-01 2.227413803339004517e-01
-6.759665161371231079e-02 -1.260469257831573486e-01 1.083489209413528442e-01
2.664332389831542969e-01 1.240484789013862610e-01 1.711349934339523315e-01
-2.421571016311645508e-01 5.124590545892715454e-02 -1.386812478303909302e-01
-1.912271827459335327e-01 7.663808763027191162e-02 -2.229898869991302490e-01
-2.827325165271759033e-01 5.333565175533294678e-02 -3.918412327766418457e-02
1.421491950750350952e-01 -7.176281511783599854e-02 -1.004674062132835388e-01
1.934116333723068237e-01 4.164976067841053009e-03 -1.291937083005905151e-01
1.629751548171043396e-02 1.426471322774887085e-01 -2.768708467483520508e-01
-1.074094474315643311e-01 1.408142298460006714e-01 -2.739732265472412109e-01
1.000624746084213257e-01 -1.683240570127964020e-02 -2.151105403900146484e-01
-3.674694150686264038e-02 -1.301229745149612427e-01 -9.633705765008926392e-02
-1.830630153417587280e-01 6.491614878177642822e-02 -2.317039370536804199e-01
2.412468343973159790e-01 1.662954539060592651e-01 -2.065328657627105713e-01
-1.741112023591995239e-01 -6.579363346099853516e-02 -6.037770211696624756e-02
-1.385901719331741333e-01 5.852706730365753174e-02 -2.507458925247192383e-01
-2.723137140274047852e-01 6.521111726760864258e-02 -3.709309175610542297e-02
-2.872687876224517822e-01 5.618769675493240356e-02 8.421266451478004456e-03
-6.312533468008041382e-02 -3.004082106053829193e-02 -1.459368914365768433e-01
-2.110641300678253174e-01 8.899931609630584717e-02 -2.112788110971450806e-01
-2.430245727300643921e-01 3.240216150879859924e-02 -8.534906804561614990e-02
-3.097344934940338135e-01 1.023417562246322632e-01 -6.627039611339569092e-02
-1.816170103847980499e-02 1.035386249423027039e-01 3.020249903202056885e-01
-5.414620041847229004e-02 -9.366435557603836060e-02 -1.546514332294464111e-01
-6.127722933888435364e-02 -4.815148562192916870e-02 -1.788894236087799072e-01
4.025255329906940460e-03 -3.210366889834403992e-02 1.696384549140930176e-01
-2.962496280670166016e-01 1.340983062982559204e-01 -1.465788781642913818e-01
-8.609003573656082153e-02 4.934708029031753540e-02 -2.256167978048324585e-01
5.716890096664428711e-02 -4.935995861887931824e-02 -1.795845776796340942e-01
-1.465323120355606079e-01 2.319627627730369568e-02 -1.955025941133499146e-01
-2.476516366004943848e-01 6.598076224327087402e-02 -1.598916649818420410e-01
2.060244977474212646e-01 1.046110987663269043e-01 -1.764954179525375366e-01
2.623198926448822021e-01 9.890487045049667358e-02 -8.675014972686767578e-02
-2.916076183319091797e-01 1.259169280529022217e-01 1.157700568437576294e-01
-9.904146939516067505e-02 1.052069067955017090e-01 -2.739204168319702148e-01
-1.691435873508453369e-01 -8.734992146492004395e-02 3.907995298504829407e-03
-2.849393486976623535e-01 5.945672467350959778e-02 -4.986466467380523682e-02
1.337332725524902344e-01 -1.178882271051406860e-01 -2.692015469074249268e-02
9.756267070770263672e-02 8.326281607151031494e-02 -2.573527991771697998e-01
1.008064299821853638e-01 -1.379355341196060181e-01 5.345428735017776489e-02
-2.668573260307312012e-01 7.529079914093017578e-02 -1.103870421648025513e-01
1.024527698755264282e-01 -1.008581370115280151e-03 2.252050489187240601e-01
-1.431129574775695801e-01 -1.005231365561485291e-01 8.661588653922080994e-04
2.583993375301361084e-01 1.208042204380035400e-01 1.719127446413040161e-01
1.113717257976531982e-01 -7.335228472948074341e-02 1.327328756451606750e-02
2.795915007591247559e-01 8.766149729490280151e-02 -1.062640845775604248e-01
-2.296142727136611938e-01 7.559473812580108643e-02 -1.656052470207214355e-01
-1.747824698686599731e-01 6.022194027900695801e-02 -2.316358983516693115e-01
-2.533418238162994385e-01 3.700993210077285767e-02 -1.109782010316848755e-01
-4.174075648188591003e-02 -1.194980069994926453e-01 -1.473806984722614288e-02
-1.132098659873008728e-01 -1.186583861708641052e-01 6.103020161390304565e-02
-1.056096702814102173e-02 -1.360990256071090698e-01 -5.324793979525566101e-02
-7.764167338609695435e-02 1.420738399028778076e-01 -3.260918557643890381e-01
-1.142212077975273132e-01 -8.114449679851531982e-02 -8.223809301853179932e-02
-1.329698860645294189e-01 -9.150959551334381104e-02 -1.583541929721832275e-02
3.070591986179351807e-01 1.200095564126968384e-01 -8.817952871322631836e-02
1.878992021083831787e-01 -3.810694068670272827e-02 3.504226356744766235e-02
-2.788614332675933838e-01 7.278923690319061279e-02 -1.020644828677177429e-01
6.718628853559494019e-02 6.633569300174713135e-02 2.631635069847106934e-01
-3.521579131484031677e-02 1.087597906589508057e-01 -3.080492913722991943e-01
-2.056217193603515625e-01 1.022300422191619873e-01 -2.209242433309555054e-01
-1.453036963939666748e-01 -9.942965954542160034e-02 -1.364503055810928345e-03
-3.758279606699943542e-02 8.772198855876922607e-02 -3.051554858684539795e-01
-2.317336946725845337e-01 -2.825763076543807983e-03 -3.837678581476211548e-02
-2.090865280479192734e-03 -1.162157133221626282e-01 -1.286075711250305176e-01
3.077919781208038330e-01 1.260942071676254272e-01 8.886274695396423340e-02
2.798412740230560303e-01 1.577233523130416870e-01 1.195319518446922302e-01
-1.811864376068115234e-01 -6.872605532407760620e-02 -4.679543524980545044e-02
-2.228379398584365845e-01 4.605376720428466797e-02 -1.516868025064468384e-01
2.969470322132110596e-01 1.177989691495895386e-01 1.142277121543884277e-01
1.645878553390502930e-01 4.231147468090057373e-02 -2.244568169116973877e-01
-9.005410596728324890e-03 1.031120344996452332e-01 -3.279580473899841309e-01
2.611311972141265869e-01 1.037089228630065918e-01 1.794285476207733154e-01
-5.840373411774635315e-02 6.259234249591827393e-02 -2.564357519149780273e-01
2.979702949523925781e-01 1.290867477655410767e-01 8.520963042974472046e-02
6.098454445600509644e-02 1.890024170279502869e-02 -2.033397853374481201e-01
-5.120401084423065186e-02 -1.237837597727775574e-01 -8.060279488563537598e-02
-2.705843448638916016e-01 1.332093626260757446e-01 1.770253926515579224e-01
-4.411047324538230896e-03 -6.731581687927246094e-02 1.538685411214828491e-01
-3.010129332542419434e-01 9.014077484607696533e-02 1.127013843506574631e-02
-1.786657720804214478e-01 5.745942145586013794e-02 -2.201480567455291748e-01
-2.206347435712814331e-01 7.302497327327728271e-02 -1.894433498382568359e-01
1.759029626846313477e-01 1.355625391006469727e-01 2.692998945713043213e-01
2.943296730518341064e-01 1.108944714069366455e-01 -1.203757673501968384e-01
-1.377266794443130493e-01 -8.849597722291946411e-02 -4.426290839910507202e-02
-1.603831201791763306e-01 -8.726597577333450317e-02 -3.297494724392890930e-02
-2.498513013124465942e-01 6.772689521312713623e-02 -1.593967527151107788e-01
1.965906023979187012e-01 -3.496076166629791260e-02 -8.031638711690902710e-02
-1.789987683296203613e-01 -1.544741820544004440e-02 -8.219698071479797363e-02
-2.936629056930541992e-01 1.576034128665924072e-01 1.231168061494827271e-01
-1.164919510483741760e-01 -1.287032663822174072e-01 -6.758489459753036499e-02
-5.007063969969749451e-02 -1.054003387689590454e-01 -1.173152104020118713e-01
1.177272759377956390e-02 -1.047216802835464478e-01 6.603307276964187622e-02
1.882200390100479126e-01 1.391025185585021973e-01 2.527353465557098389e-01
2.784895002841949463e-01 1.415839791297912598e-01 1.660554856061935425e-01
-1.790833175182342529e-01 6.029673665761947632e-02 -2.155056893825531006e-01
-2.163927853107452393e-01 5.752940848469734192e-02 -1.611815690994262695e-01
-1.461658030748367310e-01 -1.054096519947052002e-01 -4.169318825006484985e-02
-1.348613798618316650e-01 1.195775568485260010e-01 -2.789762914180755615e-01
-2.776935100555419922e-01 1.492822766304016113e-01 -1.131111979484558105e-01
-1.764288693666458130e-01 9.717685729265213013e-02 -2.594417035579681396e-01
-1.314611434936523438e-01 -9.642717242240905762e-02 4.737293347716331482e-02
-2.670862376689910889e-01 4.361135512590408325e-02 -6.760897487401962280e-02
-2.301660031080245972e-01 7.223627716302871704e-02 1.842143684625625610e-01
-1.713287830352783203e-01 6.043284386396408081e-02 -2.222611457109451294e-01
-2.305489182472229004e-01 2.525665611028671265e-02 -1.340892463922500610e-01
1.052826642990112305e-02 -4.664265364408493042e-02 -2.139323204755783081e-01
-8.068793267011642456e-02 1.018614917993545532e-01 -2.950531840324401855e-01
3.091280907392501831e-02 1.011399328708648682e-01 -2.991794049739837646e-01
-2.303276658058166504e-01 1.363552212715148926e-01 -2.378630936145782471e-01
-2.513604052364826202e-02 1.587846130132675171e-01 -3.038565218448638916e-01
-2.433557957410812378e-01 5.316753685474395752e-02 -1.278961449861526489e-01
8.790539950132369995e-02 1.354426704347133636e-02 -2.601743340492248535e-01
-1.478337645530700684e-01 3.466565534472465515e-02 -2.209864556789398193e-01
-3.186566233634948730e-01 1.345820724964141846e-01 -3.123513609170913696e-02
1.926181763410568237e-01 -2.151862718164920807e-02 -1.419936586171388626e-02
1.292738020420074463e-01 -9.907650947570800781e-02 -5.217358842492103577e-02
-2.560723423957824707e-01 1.064836531877517700e-01 -1.741876900196075439e-01
-1.721504330635070801e-01 7.876344025135040283e-02 -2.288421690464019775e-01
-5.970826745033264160e-02 1.025245040655136108e-01 2.778964936733245850e-01
-7.067422568798065186e-02 4.711949080228805542e-02 -2.829528748989105225e-01
-1.224562376737594604e-01 -1.055513247847557068e-01 -7.091774046421051025e-02
2.482296526432037354e-01 1.353851705789566040e-01 1.895910203456878662e-01
-1.988735944032669067e-01 -3.846254944801330566e-02 -8.827392011880874634e-02
2.410313487052917480e-01 1.265254765748977661e-01 1.908188164234161377e-01
-1.439130753278732300e-01 4.413497447967529297e-02 -2.252158373594284058e-01
-1.436996757984161377e-01 1.149664372205734253e-01 -2.724700570106506348e-01
-1.618700623512268066e-01 -7.659234851598739624e-02 -9.329538792371749878e-02
-1.932055652141571045e-01 -4.478663206100463867e-02 -4.274966940283775330e-02
5.319018289446830750e-02 9.202510863542556763e-02 -2.467191219329833984e-01
-1.944472491741180420e-01 4.699111729860305786e-02 -1.975366622209548950e-01
5.823985114693641663e-02 -1.163554340600967407e-01 -7.167840842157602310e-03
-1.408758945763111115e-02 -6.001183763146400452e-03 1.969909369945526123e-01
-5.148085206747055054e-02 3.281638026237487793e-03 -2.498365640640258789e-01
-6.907840073108673096e-02 -1.214937642216682434e-01 9.791497886180877686e-02
3.083605766296386719e-01 1.595733463764190674e-01 8.188004046678543091e-02
-1.854457259178161621e-01 -5.446728318929672241e-03 -1.198565885424613953e-01
-2.354001700878143311e-01 -2.262442559003829956e-02 -3.621243312954902649e-02
2.408429831266403198e-01 4.017949476838111877e-02 5.892106890678405762e-02
1.382057815790176392e-01 -8.725696057081222534e-02 -8.584992587566375732e-02
2.136187553405761719e-01 1.523196548223495483e-01 2.293845862150192261e-01
1.089173257350921631e-01 -6.265410035848617554e-02 -1.303173750638961792e-01
-1.478544622659683228e-01 6.846725940704345703e-02 -2.389042377471923828e-01
-2.308515161275863647e-01 6.077343970537185669e-02 -1.701969504356384277e-01
-2.702826559543609619e-01 5.216559022665023804e-02 -8.076950162649154663e-02
-8.026535063982009888e-02 8.839941024780273438e-02 -2.021555602550506592e-01
-2.916142344474792480e-01 8.270677924156188965e-02 -1.633428037166595459e-03
2.353643029928207397e-01 9.583020582795143127e-03 4.169608466327190399e-03
-2.460358589887619019e-01 1.381727680563926697e-02 4.896495118737220764e-02
-1.601993143558502197e-01 -3.476960957050323486e-02 -4.905943199992179871e-02
-1.036676168441772461e-01 -4.210538417100906372e-02 -4.312965646386146545e-02
-2.111771553754806519e-01 9.822216629981994629e-02 -1.937500387430191040e-01
2.223332971334457397e-01 3.718543052673339844e-02 -1.143376380205154419e-01
2.300155162811279297e-01 1.032743677496910095e-01 1.858295947313308716e-01
2.808974683284759521e-01 1.149620786309242249e-01 -3.606764227151870728e-02
1.312043070793151855e-01 -4.722749069333076477e-02 -1.214533075690269470e-01
2.740568220615386963e-01 1.081056818366050720e-01 -1.561472862958908081e-01
3.630391135811805725e-02 2.597064152359962463e-02 2.472203969955444336e-01
8.404694497585296631e-02 -5.240958184003829956e-02 1.860348582267761230e-01
1.779274046421051025e-01 -3.756261616945266724e-02 -8.458621054887771606e-02
2.535268366336822510e-01 8.906429260969161987e-02 -1.644674539566040039e-01
-1.257683932781219482e-01 1.072008013725280762e-01 -2.609604299068450928e-01
-8.598871529102325439e-02 1.364867091178894043e-01 -3.144393265247344971e-01
-1.682693660259246826e-01 5.208651721477508545e-02 -2.268815785646438599e-01
2.389199733734130859e-01 1.266372054815292358e-01 2.203714996576309204e-01
-1.916802078485488892e-01 6.676896661520004272e-02 -2.086707502603530884e-01
-2.409853786230087280e-01 7.281166501343250275e-03 -7.317559421062469482e-02
2.938082814216613770e-01 1.001072451472282410e-01 5.195546522736549377e-02
4.714752733707427979e-02 2.593475580215454102e-02 2.021687775850296021e-01
-2.496205568313598633e-01 6.534676998853683472e-02 -1.379142999649047852e-01
-5.083090066909790039e-02 -6.564654409885406494e-02 -1.778107732534408569e-01
-1.319560855627059937e-01 -2.579577267169952393e-04 -1.378679275512695312e-01
2.639850080013275146e-01 6.408300995826721191e-02 1.014648899435997009e-01
-2.870540916919708252e-01 9.638500213623046875e-02 1.035283729434013367e-01
1.510856579989194870e-02 5.556667596101760864e-02 2.487692981958389282e-01
5.442618858069181442e-04 -1.343583166599273682e-01 -1.099687814712524414e-01
-2.656846344470977783e-01 1.289673000574111938e-01 -1.381175220012664795e-01
2.698499858379364014e-01 8.068445324897766113e-02 4.506382346153259277e-02
-1.622161865234375000e-01 5.866714939475059509e-02 -2.231218963861465454e-01
-1.508390456438064575e-01 -7.464009523391723633e-02 5.609730631113052368e-02
-7.705518975853919983e-03 -1.122159063816070557e-01 1.460843980312347412e-01
2.305388748645782471e-01 4.535096138715744019e-02 -1.604204326868057251e-01
7.666005194187164307e-02 -2.525649778544902802e-02 1.280207931995391846e-01
2.389227449893951416e-01 -1.122829690575599670e-02 2.800332382321357727e-03
-2.066023200750350952e-01 1.701304316520690918e-02 -1.116808056831359863e-01
1.821680516004562378e-01 7.072416692972183228e-02 2.249687761068344116e-01
-4.744995385408401489e-02 4.506757110357284546e-02 -2.439687699079513550e-01
-1.119978502392768860e-01 -8.782812207937240601e-02 -8.152622729539871216e-03
-5.388083681464195251e-02 9.017618000507354736e-02 -2.988486289978027344e-01
-1.059483364224433899e-02 -2.864393219351768494e-02 -1.511323451995849609e-01
1.872950792312622070e-01 -2.385548874735832214e-02 1.154490709304809570e-01
-5.559671670198440552e-02 1.667207032442092896e-01 -3.115108013153076172e-01
-2.847777307033538818e-01 5.702988058328628540e-02 -1.204399578273296356e-02
1.943029910326004028e-01 1.509921625256538391e-03 -1.197250485420227051e-01
2.188196405768394470e-02 -8.952391892671585083e-02 -1.778613030910491943e-01
1.756213307380676270e-01 -4.343816265463829041e-02 3.239444270730018616e-02
-8.878728747367858887e-02 1.087521389126777649e-01 -2.983740270137786865e-01
-9.190585464239120483e-02 3.476576134562492371e-02 2.595713436603546143e-01
-1.849846988916397095e-01 -6.320632994174957275e-02 -3.695400059223175049e-02
-2.163538932800292969e-01 9.388529509305953979e-02 2.128335833549499512e-01
2.857226133346557617e-01 6.440151482820510864e-02 -5.997778847813606262e-03
-4.009231552481651306e-02 -3.509508445858955383e-02 2.024877071380615234e-01
3.027778863906860352e-01 1.091873124241828918e-01 -4.832273721694946289e-02
-2.016020864248275757e-01 6.574355810880661011e-02 -2.049698829650878906e-01
1.424997597932815552e-01 -9.163872897624969482e-02 -1.807015575468540192e-02
-2.126190960407257080e-01 1.635242700576782227e-01 2.276270240545272827e-01
-2.170178741216659546e-01 7.686758041381835938e-02 -1.969907581806182861e-01
9.181834757328033447e-03 1.042484045028686523e-01 2.763715684413909912e-01
-2.497175633907318115e-01 1.256504952907562256e-01 -1.852348446846008301e-01
-2.397934049367904663e-01 4.327500611543655396e-02 -1.336095780134201050e-01
-1.757801473140716553e-01 6.523455679416656494e-02 -2.375920563936233521e-01
-3.193211555480957031e-01 1.349077522754669189e-01 -1.028252765536308289e-03
-1.493686437606811523e-01 7.560876756906509399e-02 -2.598150074481964111e-01
2.099781483411788940e-01 1.260757744312286377e-01 2.264849394559860229e-01
1.457498669624328613e-01 -8.437651395797729492e-02 9.633214026689529419e-02
-2.099516391754150391e-01 4.757199063897132874e-02 -1.903149485588073730e-01
1.726642996072769165e-01 1.687284186482429504e-02 1.364436000585556030e-01
-1.836733222007751465e-01 6.222534179687500000e-02 -2.057312130928039551e-01
-1.851117163896560669e-01 -5.399853736162185669e-02 1.499503105878829956e-02
2.871401607990264893e-01 8.550655096769332886e-02 -1.059773284941911697e-02
2.347957529127597809e-02 1.308145374059677124e-01 -3.256231546401977539e-01
-2.512690722942352295e-01 1.384740136563777924e-02 -3.869459033012390137e-03
-3.217354044318199158e-02 -1.352538466453552246e-01 -4.182837530970573425e-02
1.573514640331268311e-01 6.971281766891479492e-02 2.445729225873947144e-01
-2.766980230808258057e-01 7.463451474905014038e-02 9.037056565284729004e-02
3.191365674138069153e-02 1.017744988203048706e-01 -3.189250230789184570e-01
8.276198804378509521e-02 -1.211040914058685303e-01 -1.092153266072273254e-01
-1.436470597982406616e-01 7.081054151058197021e-02 -2.470261901617050171e-01
2.522304058074951172e-01 8.047973364591598511e-02 1.514558792114257812e-01
1.682570949196815491e-02 6.856267899274826050e-02 2.759854793548583984e-01
2.799122631549835205e-01 1.366677433252334595e-01 1.478163003921508789e-01
-8.674408495426177979e-02 -7.285646349191665649e-02 1.611032187938690186e-01
2.376444339752197266e-01 1.195037662982940674e-01 1.856461018323898315e-01
1.464960724115371704e-01 -4.847430437803268433e-02 7.836775481700897217e-02
-1.249016150832176208e-01 1.361865457147359848e-02 -2.156874239444732666e-01
-3.371748700737953186e-02 1.438702046871185303e-01 -3.233121931552886963e-01
1.471789330244064331e-01 -3.607566282153129578e-02 -1.459577977657318115e-01
2.940371632575988770e-01 1.346136182546615601e-01 -1.389662921428680420e-01
-2.546638846397399902e-01 3.312651440501213074e-02 7.451674342155456543e-02
-1.508390307426452637e-01 -1.002953201532363892e-01 -1.395018026232719421e-02
-3.765223920345306396e-02 -2.536502480506896973e-02 -1.864409893751144409e-01
-2.528990805149078369e-01 1.091930419206619263e-01 -1.556088775396347046e-01
-2.221947759389877319e-01 3.363996744155883789e-02 -5.604879930615425110e-02
2.906842231750488281e-01 7.511819899082183838e-02 4.900962486863136292e-02
-1.550916433334350586e-01 9.112086147069931030e-02 -2.514574527740478516e-01
-1.360280513763427734e-01 -1.138032600283622742e-01 1.466069836169481277e-03
-1.746030449867248535e-01 5.424473434686660767e-02 -2.225511968135833740e-01
-2.328130900859832764e-01 5.883653461933135986e-02 -1.640472710132598877e-01
-3.085897862911224365e-01 9.825074672698974609e-02 7.792396098375320435e-02
1.131347939372062683e-01 -6.091203913092613220e-02 1.403840035200119019e-01
2.516562342643737793e-01 1.069549545645713806e-01 1.791070997714996338e-01
-1.711216717958450317e-01 3.115277737379074097e-02 -2.192995697259902954e-01
-1.409180164337158203e-01 4.144164919853210449e-02 2.383876889944076538e-01
3.013803437352180481e-02 -1.245806813240051270e-01 -6.717096269130706787e-02
2.633656561374664307e-01 1.263055801391601562e-01 -1.641173958778381348e-01
-1.212318316102027893e-01 -1.169790178537368774e-01 9.343275800347328186e-03
2.130771279335021973e-01 1.352358981966972351e-02 -1.698904484510421753e-02
-1.629845201969146729e-01 5.583439767360687256e-02 -2.294110059738159180e-01
-1.001790761947631836e-01 -3.069750033318996429e-03 -2.218725085258483887e-01
-2.261454612016677856e-01 6.968894600868225098e-02 -1.716271191835403442e-01
-2.444464862346649170e-01 6.864359229803085327e-02 -1.520961523056030273e-01
2.017700374126434326e-01 5.865018814802169800e-02 -1.564033031463623047e-01
-1.018944382667541504e-01 1.446420252323150635e-01 2.613210678100585938e-01
-1.445088535547256470e-03 1.049888581037521362e-01 -3.033837974071502686e-01
1.199750304222106934e-01 -1.140043884515762329e-01 -1.029401943087577820e-01
-8.149120956659317017e-03 3.617894649505615234e-02 -2.745395004749298096e-01
2.002391070127487183e-01 -4.398293793201446533e-02 3.188611194491386414e-02
-1.600299626588821411e-01 -8.953174203634262085e-02 6.755875423550605774e-03
2.366529703140258789e-01 3.640795871615409851e-02 -3.176021575927734375e-02
-1.905272156000137329e-01 6.589064002037048340e-02 -2.197250276803970337e-01
-2.263486683368682861e-01 1.056134235113859177e-03 6.878963112831115723e-02
-2.180690765380859375e-01 6.916750967502593994e-02 1.542169451713562012e-01
-2.110268473625183105e-01 2.688489854335784912e-02 -1.605192273855209351e-01
1.706281453371047974e-01 -1.048911660909652710e-01 4.387414082884788513e-03
-7.520142197608947754e-02 -8.848146535456180573e-05 -1.760503649711608887e-01
-9.421052038669586182e-02 8.310808241367340088e-02 -2.725386321544647217e-01
-2.062382400035858154e-01 1.322229206562042236e-02 -1.373630613088607788e-01
6.718942523002624512e-02 -1.276354342699050903e-01 1.179181411862373352e-01
-1.959975063800811768e-01 -5.403859913349151611e-02 -2.907558344304561615e-02
1.580689102411270142e-01 1.961486972868442535e-02 1.002811491489410400e-01
-1.784453392028808594e-01 6.420460343360900879e-02 -2.224094867706298828e-01
8.967041224241256714e-02 -7.020434737205505371e-02 1.430512815713882446e-01
-1.564754247665405273e-01 3.792431205511093140e-02 2.196220308542251587e-01
2.874068617820739746e-01 1.066747456789016724e-01 1.216166689991950989e-01
-3.916862607002258301e-02 -1.659183576703071594e-02 -2.301916927099227905e-01
1.574297845363616943e-01 1.415910720825195312e-01 2.632527351379394531e-01
-1.437855362892150879e-01 -8.741071820259094238e-02 -1.624806411564350128e-02
-2.471600621938705444e-01 1.782255619764328003e-02 7.374966517090797424e-03
-2.553539872169494629e-01 4.012337699532508850e-02 3.927321732044219971e-02
-1.298408359289169312e-01 6.627729535102844238e-02 -2.528788447380065918e-01
2.315144091844558716e-01 2.032534964382648468e-02 -4.181912541389465332e-02
1.326487362384796143e-01 1.401685476303100586e-01 -2.952812910079956055e-01
2.306930422782897949e-01 1.269643306732177734e-01 2.241722494363784790e-01
3.098139762878417969e-01 1.278588771820068359e-01 4.319981485605239868e-02
-1.757061183452606201e-01 9.403990954160690308e-02 -2.247820198535919189e-01
-1.487514972686767578e-01 1.360664889216423035e-02 -2.144478112459182739e-01
-1.559640318155288696e-01 2.708435058593750000e-03 6.714364886283874512e-02
-1.238034665584564209e-01 3.655866533517837524e-02 -2.161318808794021606e-01
-2.918871343135833740e-01 5.733486264944076538e-02 4.205944016575813293e-03
6.396752595901489258e-02 2.236497402191162109e-02 -2.477699369192123413e-01
2.861576974391937256e-01 1.214415356516838074e-01 5.147875100374221802e-02
-1.579731851816177368e-01 3.392361849546432495e-02 -2.140010446310043335e-01
9.980510175228118896e-02 -1.239433586597442627e-01 -1.017811968922615051e-01
-1.901488006114959717e-01 7.358808815479278564e-02 2.063425928354263306e-01
1.740719564259052277e-02 -9.642842411994934082e-02 1.135088056325912476e-01
7.592584192752838135e-02 1.564760208129882812e-01 2.847871482372283936e-01
2.159578055143356323e-01 8.931964635848999023e-02 -2.175342440605163574e-01
2.375091463327407837e-01 1.186888217926025391e-01 1.946499645709991455e-01
-1.875016689300537109e-01 -2.969072759151458740e-02 -1.260733008384704590e-01
-1.985044479370117188e-01 7.067714631557464600e-02 -1.861035078763961792e-01
-1.549784243106842041e-01 2.276609465479850769e-02 -1.842665970325469971e-01
2.331071197986602783e-01 1.117195412516593933e-01 2.079782485961914062e-01
-1.699804663658142090e-01 -9.152691811323165894e-02 -3.092554863542318344e-03
-2.279467880725860596e-03 3.202784433960914612e-02 -2.491401135921478271e-01
-1.970130056142807007e-01 -4.828348010778427124e-02 4.680886864662170410e-03
-2.405141741037368774e-01 1.002314686775207520e-01 -1.871941238641738892e-01
-4.141166806221008301e-02 -1.090599372982978821e-01 8.064086735248565674e-02
5.030317232012748718e-02 -1.080898568034172058e-01 -6.308143585920333862e-02
-2.073302567005157471e-01 7.085877656936645508e-02 -1.989565193653106689e-01
5.030777677893638611e-02 1.373141407966613770e-01 -3.194397687911987305e-01
-1.356649398803710938e-01 5.003927648067474365e-02 -2.402415275573730469e-01
-2.363806068897247314e-01 3.319136053323745728e-02 -1.034745573997497559e-01
-2.586995065212249756e-01 4.291019588708877563e-02 -9.494476020336151123e-02
1.091143339872360229e-01 -1.117272824048995972e-01 -9.009435027837753296e-02
-1.441581845283508301e-01 -6.193285435438156128e-02 -1.223901361227035522e-01
3.874367848038673401e-02 7.886481285095214844e-02 -3.002183139324188232e-01
-2.825803458690643311e-01 1.220317631959915161e-01 -1.296947151422500610e-01
-1.136019155383110046e-01 5.036056414246559143e-02 -2.628677785396575928e-01
-1.198395788669586182e-01 5.719270184636116028e-02 1.962196677923202515e-01
-2.760784924030303955e-01 1.195160746574401855e-01 -1.612438261508941650e-01
-1.847773790359497070e-01 1.076621711254119873e-01 -2.490639388561248779e-01
-2.090892940759658813e-01 5.275531858205795288e-02 -2.037355303764343262e-01
-2.464596182107925415e-01 7.919821143150329590e-02 -1.570053994655609131e-01
2.232522964477539062e-01 -1.372026093304157257e-02 -5.584646016359329224e-02
-2.579079270362854004e-01 6.120437383651733398e-02 -1.281796544790267944e-01
1.724826171994209290e-02 1.425020098686218262e-01 -3.125903010368347168e-01
-1.878829449415206909e-01 -5.264349654316902161e-02 -2.908788248896598816e-02
2.067862004041671753e-01 6.978655606508255005e-02 1.306498050689697266e-01
2.751282751560211182e-01 1.328224837779998779e-01 -1.693074107170104980e-01
-9.323786199092864990e-02 -1.210958734154701233e-01 7.721468806266784668e-02
-1.512140221893787384e-02 -1.089227870106697083e-01 1.415179949253797531e-02
1.840773373842239380e-01 5.022741109132766724e-02 2.008073776960372925e-01
2.963573932647705078e-01 7.490465790033340454e-02 -9.622194617986679077e-02
-2.886010408401489258e-01 1.285419166088104248e-01 -3.463668376207351685e-02
2.379671782255172729e-01 1.076790168881416321e-01 1.221261918544769287e-01
-2.699942886829376221e-01 6.750093400478363037e-02 -6.636619567871093750e-02
2.579978108406066895e-01 1.266461461782455444e-01 -1.982317864894866943e-01
2.807831168174743652e-01 9.042409807443618774e-02 -1.128760129213333130e-01
-2.592768967151641846e-01 5.488487705588340759e-02 -9.688617289066314697e-02
2.262307405471801758e-01 -4.801673814654350281e-03 -2.322591096162796021e-02
-2.698678374290466309e-01 9.867298603057861328e-02 -1.530532240867614746e-01
1.350994855165481567e-01 -1.101969331502914429e-01 7.374121993780136108e-02
-1.618168801069259644e-01 -5.024102702736854553e-02 -1.968220621347427368e-02
-2.306418865919113159e-01 3.292305767536163330e-02 -1.322275251150131226e-01
-1.436773240566253662e-01 1.132913827896118164e-01 2.391770333051681519e-01
1.641458421945571899e-01 6.450964510440826416e-02 2.202917337417602539e-01
-1.923002153635025024e-01 1.315417513251304626e-02 1.607704311609268188e-01
2.391933500766754150e-01 9.985651820898056030e-03 2.653301507234573364e-02
1.161661446094512939e-01 8.178579807281494141e-02 2.638613283634185791e-01
-2.710912525653839111e-01 6.537076085805892944e-02 5.843800678849220276e-02
-1.555130183696746826e-01 -4.649415612220764160e-02 -1.122480630874633789e-01
1.393390446901321411e-01 1.359067857265472412e-01 2.908582985401153564e-01
2.175290584564208984e-01 9.476217627525329590e-02 2.158527076244354248e-01
-1.533494591712951660e-01 6.403293460607528687e-02 -2.229227721691131592e-01
-1.218270659446716309e-01 1.465735137462615967e-01 3.027821779251098633e-01
1.902284473180770874e-01 9.733535349369049072e-02 2.012688517570495605e-01
-1.609633862972259521e-01 5.527240037918090820e-02 -2.231608182191848755e-01
-1.543066650629043579e-01 -9.829629212617874146e-02 1.428907085210084915e-02
-2.448688820004463196e-02 -2.646982669830322266e-03 2.424416095018386841e-01
1.424327343702316284e-01 -1.086270213127136230e-01 2.132037095725536346e-02
-2.633905112743377686e-01 1.614922434091567993e-01 1.618804186582565308e-01
2.013594657182693481e-01 1.241459548473358154e-01 2.270827442407608032e-01
1.335143744945526123e-01 -1.126115471124649048e-01 4.005152359604835510e-02
9.410230815410614014e-02 5.585153400897979736e-02 2.654707133769989014e-01
1.629010736942291260e-01 -8.383295685052871704e-02 -3.887494653463363647e-02
-2.133231312036514282e-01 3.690118342638015747e-02 -1.008247360587120056e-01
-1.655251234769821167e-01 7.584922015666961670e-02 -2.413092553615570068e-01
-1.458021402359008789e-01 1.000461801886558533e-01 -2.751849889755249023e-01
4.052696004509925842e-02 5.767011642456054688e-02 -2.889900803565979004e-01
3.028018772602081299e-01 1.025284379720687866e-01 -2.351811528205871582e-02
1.953759938478469849e-01 -7.169046252965927124e-02 -7.768731564283370972e-03
2.386600375175476074e-01 1.547162830829620361e-01 1.689467728137969971e-01
-1.976742595434188843e-01 7.193817198276519775e-02 -2.114883959293365479e-01
-1.840718537569046021e-01 5.809759721159934998e-02 -2.088852524757385254e-01
4.479152709245681763e-02 1.010019928216934204e-01 3.065812289714813232e-01
1.120259240269660950e-01 -3.535332530736923218e-02 -5.678208172321319580e-02
1.223892867565155029e-01 -1.141557842493057251e-01 -2.644721046090126038e-02
4.868429899215698242e-02 -9.539388865232467651e-02 4.439587146043777466e-02
-3.135601878166198730e-01 1.528090089559555054e-01 -9.313734620809555054e-02
-1.632256507873535156e-01 -3.079986944794654846e-02 1.362670361995697021e-01
-1.836625635623931885e-01 -1.696794107556343079e-02 1.128554716706275940e-01
2.017483860254287720e-01 4.979856312274932861e-02 -1.979469358921051025e-01
-2.421782612800598145e-01 6.898573040962219238e-02 -1.704505980014801025e-01
-3.327284008264541626e-02 -8.240980654954910278e-02 1.825088709592819214e-01
-2.221149802207946777e-01 9.135643392801284790e-02 -2.056091427803039551e-01
-1.854121126234531403e-02 3.091830946505069733e-02 -2.414596974849700928e-01
3.216845169663429260e-02 2.637281641364097595e-02 2.658381164073944092e-01
2.014342844486236572e-01 7.168971747159957886e-02 -2.180867791175842285e-01
2.736401557922363281e-01 9.588624536991119385e-02 8.336870372295379639e-02
1.103273555636405945e-01 -6.318616122007369995e-02 -1.508066803216934204e-01
-2.347433269023895264e-01 5.471293628215789795e-02 1.561991572380065918e-01
-2.942510843276977539e-01 7.474289089441299438e-02 -5.666463822126388550e-02
-2.586871758103370667e-02 7.039350271224975586e-02 2.607197463512420654e-01
7.614815980195999146e-02 -1.489104628562927246e-01 2.622045017778873444e-02
-2.796499729156494141e-01 5.691725388169288635e-02 1.395556982606649399e-02
-1.440932452678680420e-01 9.124354273080825806e-02 -2.560654878616333008e-01
-1.714854538440704346e-01 8.099355548620223999e-02 -2.342084050178527832e-01
-1.998222768306732178e-01 -1.489038579165935516e-02 -9.552653133869171143e-02
-3.082021325826644897e-02 -6.381879746913909912e-02 6.407925486564636230e-02
2.038060277700424194e-01 3.222907334566116333e-02 2.003912180662155151e-01
2.395937144756317139e-01 9.763225913047790527e-02 -1.842690408229827881e-01
7.288932055234909058e-02 -1.110133454203605652e-01 -1.351645141839981079e-01
1.877387762069702148e-01 -3.961279988288879395e-02 -3.074430488049983978e-02
-2.512131929397583008e-01 1.063315942883491516e-01 -1.441985368728637695e-01
-2.674035131931304932e-01 9.795326739549636841e-02 -1.405717730522155762e-01
7.620041258633136749e-03 -1.389597207307815552e-01 7.094889134168624878e-02
1.256873160600662231e-01 7.181859761476516724e-02 2.685678601264953613e-01
-3.364327549934387207e-01 1.317401677370071411e-01 9.034669958055019379e-03
2.899921834468841553e-01 1.049770191311836243e-01 7.320646196603775024e-03
-4.773080348968505859e-03 -1.255612969398498535e-01 -9.357841312885284424e-02
2.973144054412841797e-01 8.194078505039215088e-02 5.856014788150787354e-02
-1.866184324026107788e-01 6.568713486194610596e-02 -2.165325582027435303e-01
3.739911317825317383e-02 -1.457272022962570190e-01 -9.955624490976333618e-02
2.051913142204284668e-01 4.826717451214790344e-02 1.969432830810546875e-01
-2.150655835866928101e-01 6.912912428379058838e-02 -1.677972525358200073e-01
-2.183265537023544312e-01 8.317770063877105713e-02 -1.920558810234069824e-01
-9.555614739656448364e-02 -1.262055635452270508e-01 3.208275139331817627e-02
-5.178695917129516602e-02 1.638687588274478912e-02 -2.296831458806991577e-01
3.459516167640686035e-02 -1.331354528665542603e-01 -3.316247090697288513e-02
-2.549015581607818604e-01 1.515984833240509033e-01 -2.079124748706817627e-01
-1.735311001539230347e-01 -8.461051620543003082e-03 8.911320939660072327e-03
6.960912048816680908e-02 1.390309780836105347e-01 3.163661062717437744e-01
2.246237546205520630e-01 9.072296321392059326e-02 2.132116705179214478e-01
-2.772479355335235596e-01 1.050997748970985413e-01 -1.095438674092292786e-01
-2.766355499625205994e-02 2.874564193189144135e-02 -2.684195041656494141e-01
-9.452234953641891479e-02 -1.436627060174942017e-01 3.033862821757793427e-02
2.331955432891845703e-01 1.067605912685394287e-01 2.007939368486404419e-01
1.052176766097545624e-02 -8.524368703365325928e-02 -1.459200382232666016e-01
-1.151727885007858276e-01 -1.138188987970352173e-01 -1.034523546695709229e-02
-1.307967454195022583e-01 -1.258370727300643921e-01 -2.598161436617374420e-02
1.118826270103454590e-01 -4.709134250879287720e-02 -1.725465208292007446e-01
-4.290101677179336548e-02 -1.274886429309844971e-01 -6.493960320949554443e-02
1.237401589751243591e-01 -1.914899237453937531e-02 -1.589729189872741699e-01
2.735944986343383789e-01 8.891618996858596802e-02 1.535108983516693115e-01
-2.459285408258438110e-02 -5.309054628014564514e-02 -2.074235677719116211e-01
1.898176968097686768e-01 8.845537900924682617e-02 2.323292791843414307e-01
-1.460511982440948486e-01 3.329477086663246155e-02 -2.213218808174133301e-01
-2.558425962924957275e-01 5.389182269573211670e-02 1.099848151206970215e-01
-1.660909950733184814e-01 9.498529136180877686e-02 -2.457556128501892090e-01
-2.054565548896789551e-01 6.167506054043769836e-02 -2.085314542055130005e-01
2.906250655651092529e-01 1.031677275896072388e-01 9.791848063468933105e-02
1.410410851240158081e-01 1.453833281993865967e-02 -2.165537327527999878e-01
-2.894026637077331543e-01 6.687521934509277344e-02 8.078251779079437256e-02
-1.713867187500000000e-01 1.742006093263626099e-02 1.743260473012924194e-01
-7.220576703548431396e-02 1.409907490015029907e-01 -2.969609498977661133e-01
2.630752027034759521e-01 3.919329494237899780e-02 -7.415367662906646729e-02
-6.820590049028396606e-02 -1.251432448625564575e-01 6.763338297605514526e-02
2.149154990911483765e-02 3.755629807710647583e-02 -2.657419443130493164e-01
-2.600998878479003906e-01 1.049696505069732666e-01 7.291416823863983154e-02
1.658744364976882935e-01 1.535575240850448608e-01 -2.685750424861907959e-01
-3.155454099178314209e-01 1.309265196323394775e-01 4.260540008544921875e-02
2.100187242031097412e-01 1.194035410881042480e-01 2.359866052865982056e-01
-5.917220562696456909e-02 1.503240615129470825e-01 2.897196114063262939e-01
7.626517862081527710e-02 7.808876037597656250e-02 1.384515464305877686e-01
-1.253418922424316406e-01 7.431290298700332642e-02 -2.575643360614776611e-01
-1.839357912540435791e-01 3.221637755632400513e-02 -1.861853599548339844e-01
-1.930835098028182983e-01 1.670444943010807037e-02 -1.747953593730926514e-01
5.522554367780685425e-02 -9.258984588086605072e-03 -2.187522947788238525e-01
2.524157464504241943e-01 1.403428614139556885e-01 -2.056576907634735107e-01
-5.613938905298709869e-03 -5.961181968450546265e-02 -1.850949376821517944e-01
-2.241553664207458496e-01 3.525629267096519470e-02 -3.079201094806194305e-02
-1.776448264718055725e-02 3.353329747915267944e-02 2.634871304035186768e-01
7.068912684917449951e-02 -1.287765204906463623e-01 8.110492676496505737e-02
1.024621352553367615e-01 -1.120298951864242554e-01 -5.763314664363861084e-02
2.722718119621276855e-01 1.547412276268005371e-01 -1.461714506149291992e-01
-4.570063203573226929e-02 -5.377727001905441284e-02 8.824833668768405914e-03
-1.252736002206802368e-01 1.385841146111488342e-02 -1.832491755485534668e-01
-2.413131594657897949e-01 5.000132322311401367e-02 -1.154671311378479004e-01
2.526323795318603516e-01 2.117435634136199951e-02 7.315133512020111084e-02
-1.820837110280990601e-01 1.762975379824638367e-02 -9.906751662492752075e-02
-6.610720418393611908e-03 7.473408430814743042e-02 3.006798326969146729e-01
5.349823832511901855e-02 1.082956269383430481e-01 -3.109731674194335938e-01
9.351197630167007446e-02 -1.100968345999717712e-01 -1.219665408134460449e-01
-1.214308291673660278e-01 -6.953927874565124512e-02 -1.394081711769104004e-01
1.715947687625885010e-01 2.771718800067901611e-02 -1.343929767608642578e-01
8.318198472261428833e-02 -9.721334278583526611e-02 -2.925436012446880341e-02
-2.436286509037017822e-01 5.136226862668991089e-02 -1.270665973424911499e-01
-2.380043268203735352e-01 5.741831660270690918e-02 -1.340761482715606689e-01
-2.339433729648590088e-01 1.218450739979743958e-01 -1.961527317762374878e-01
1.485893875360488892e-01 3.119956701993942261e-02 2.237809747457504272e-01
-2.515573501586914062e-01 1.108322814106941223e-01 -1.634576618671417236e-01
6.694834679365158081e-02 -9.388279169797897339e-02 -1.368855088949203491e-01
-2.619793117046356201e-01 5.739326030015945435e-02 -7.758375257253646851e-02
2.306298762559890747e-01 4.530622065067291260e-02 1.396013945341110229e-01
-2.000636309385299683e-01 1.640231534838676453e-02 7.495670020580291748e-02
1.399747282266616821e-02 -1.149856299161911011e-01 9.568064659833908081e-02
2.607237696647644043e-01 1.492243260145187378e-01 -8.545852452516555786e-02
1.193471178412437439e-01 2.832645550370216370e-03 -2.136935293674468994e-01
-1.399130672216415405e-01 -1.091049984097480774e-01 -4.681763052940368652e-02
3.298658728599548340e-01 9.424369782209396362e-02 -2.093256637454032898e-02
1.259841918945312500e-01 6.847289204597473145e-02 -2.726946175098419189e-01
-1.663526296615600586e-01 1.485781744122505188e-03 -1.472406238317489624e-01
1.070660948753356934e-01 -1.361818462610244751e-01 1.445321552455425262e-02
3.203006833791732788e-02 -1.007103100419044495e-01 -1.685534119606018066e-01
2.503681182861328125e-01 1.086810976266860962e-01 7.834944128990173340e-02
-1.867080181837081909e-01 4.534719511866569519e-02 -2.131320387125015259e-01
-2.426240220665931702e-02 -7.647706568241119385e-02 -1.542903780937194824e-01
-2.263851016759872437e-01 3.566071391105651855e-03 -8.492542058229446411e-02
1.752832531929016113e-01 1.429419517517089844e-01 2.683451771736145020e-01
-1.902154535055160522e-01 5.012115836143493652e-02 -1.880603730678558350e-01
2.338703125715255737e-01 9.693975001573562622e-02 -1.799753755331039429e-01
-2.027204185724258423e-01 5.263321101665496826e-02 -1.804961860179901123e-01
-2.337996661663055420e-01 8.680085837841033936e-02 -1.651446223258972168e-01
2.260584086179733276e-01 -1.134599652141332626e-02 4.530966281890869141e-02
-2.503691017627716064e-01 5.312239378690719604e-02 -1.413975208997726440e-01
-2.847002744674682617e-01 5.347831174731254578e-02 3.015379980206489563e-02
-1.403138637542724609e-01 5.799768865108489990e-02 -2.494840919971466064e-01
-2.489523738622665405e-01 3.697582334280014038e-02 -1.184009537100791931e-01
2.883917987346649170e-01 9.668099880218505859e-02 -2.224348299205303192e-02
-2.588726878166198730e-01 2.339363843202590942e-02 -2.836974896490573883e-02
2.220037877559661865e-01 -2.370093576610088348e-02 -1.726559922099113464e-02
-1.403493583202362061e-01 -9.795765578746795654e-02 -8.670505881309509277e-02
2.953991293907165527e-01 8.193371444940567017e-02 2.330339141190052032e-02
3.146810531616210938e-01 1.519865691661834717e-01 -1.303969323635101318e-01
-3.163043409585952759e-02 -1.334152072668075562e-01 -1.285166442394256592e-01
-8.153669536113739014e-02 -1.122528836131095886e-01 -9.556163847446441650e-02
-9.899642318487167358e-02 7.368240505456924438e-02 -2.749429643154144287e-01
1.568508595228195190e-01 -3.898030146956443787e-02 -1.980748958885669708e-03
2.231351733207702637e-01 8.680976182222366333e-02 -2.214787155389785767e-01
-2.332753837108612061e-01 2.523364126682281494e-02 -1.077959761023521423e-01
-2.757730782032012939e-01 8.960629999637603760e-02 -8.497060835361480713e-02
-2.503628432750701904e-01 1.558487564325332642e-01 -1.620415449142456055e-01
-2.179667502641677856e-01 6.395442783832550049e-02 -1.846587955951690674e-01
-1.115158051252365112e-01 -8.170080371201038361e-03 -9.698102623224258423e-02
