2.431339504731805379e-01 1.442445820169597770e-01 6.831581079211314078e-01
1.329399597620314899e-01 1.009778986535642964e-01 6.566050267248602079e-01
2.570402027559731128e-01 1.508057093871097432e-01 6.529951754569172095e-01
1.373559171767713971e-01 1.438044740040419489e-01 6.008020599289827235e-01
2.520867264585636147e-01 1.446363636844485434e-01 6.781352838525991356e-01
2.460643959219545318e-01 1.539025354466973805e-01 6.775298205599069590e-01
2.271366814866521699e-01 1.756017146367591375e-01 5.845374745136231454e-01
2.620011659556197303e-01 1.618509763035018145e-01 6.421971083468258623e-01
2.823842147549352477e-01 1.415114905012669066e-01 6.096929081659115957e-01
2.564591428847150523e-01 1.669637675543403921e-01 6.141030774732464392e-01
1.698811017819647495e-01 8.880880486839591581e-02 6.878074560512471569e-01
2.288941794357583492e-01 1.821486215658512098e-01 6.527696912211433666e-01
2.439011278458582954e-01 1.797952677488867390e-01 6.532155723338991526e-01
1.908822299112057364e-01 1.801266387939516878e-01 6.468743648017869496e-01
2.895308369877053756e-01 1.257528763753240908e-01 5.975709204501603589e-01
2.274755586110126793e-01 1.794430109269115614e-01 6.624213294256983131e-01
2.196932114588679985e-01 1.587272978554277181e-01 6.908848887277957429e-01
2.197531441848597222e-01 1.731413759280027165e-01 6.619793958598528816e-01
2.764789609902760237e-01 1.482370385358233456e-01 6.354517252896251245e-01
1.341852711297179535e-01 1.263022058079443788e-01 6.540559146281809122e-01
2.140504242906824117e-01 7.642871045089810744e-02 6.889284079229853752e-01
2.182871085953991264e-01 1.860763183502131268e-01 6.164600066571144232e-01
2.860394496074362691e-01 1.279722737665285048e-01 6.385872943393972045e-01
1.950494178670426071e-01 1.661796539987505650e-01 6.846212564226532571e-01
1.492040757773338000e-01 1.120404357727610850e-01 6.768389782707542324e-01
1.497368041348289824e-01 1.531664162853755839e-01 5.993536524187317305e-01
1.583831813161558633e-01 9.705249683557580498e-02 6.839615855880094575e-01
2.443198903978511527e-01 8.274310409975654812e-02 6.879351204545400833e-01
1.676312393689591840e-01 1.013448268678709685e-01 6.898270214142057100e-01
2.366257913600150753e-01 1.580951999242403150e-01 6.656138654497059104e-01
2.194852865731664882e-01 9.861652826284561524e-02 6.843304536311249908e-01
1.694882884163792791e-01 1.614932175815727844e-01 6.570800566564676259e-01
1.983566671477755561e-01 1.796396646735132219e-01 5.927988939562272019e-01
2.129007281438403121e-01 8.938219552931442324e-02 6.986536064395333367e-01
1.771428894066308102e-01 1.471941073379585962e-01 6.785378888386587315e-01
2.334124886228094997e-01 1.800754584098536171e-01 6.436364279943986855e-01
2.236076750562712712e-01 9.809925653039985871e-02 6.990713244659207959e-01
2.588429152907970598e-01 1.544945596484240957e-01 5.941178370336261949e-01
2.190428325797038889e-01 8.538650600807397295e-02 6.976631284990701953e-01
2.034368150933592023e-01 1.000942554277635954e-01 6.943182170369058825e-01
2.840699051007505860e-01 1.320654789078476166e-01 6.037371589973257180e-01
2.056407474877312014e-01 1.736241465929833638e-01 6.698459433293114662e-01
1.977022221787316791e-01 1.907303884725813914e-01 6.310123716359526957e-01
2.868105605677679915e-01 1.328575907252798893e-01 5.983616012799320982e-01
2.739258145287065127e-01 1.211977981591605968e-01 6.631307443728708950e-01
1.620655093914106781e-01 9.444884842890552412e-02 6.809680532899823335e-01
2.578041090087305198e-01 1.667703692275023519e-01 6.258507470185888932e-01
2.623914780765129184e-01 1.490645732088089204e-01 6.439499656876869205e-01
2.738280153773848813e-01 1.525915401625346224e-01 6.152452422668137633e-01
2.504977015602769530e-01 1.539290399679837662e-01 5.749309792501255956e-01
1.496560400450425155e-01 1.033195017689701178e-01 6.779200455946924331e-01
1.585281738780942307e-01 1.520762747155448291e-01 6.678900747271278027e-01
2.733730037155635006e-01 1.055395911826028099e-01 6.627431155530896234e-01
2.764550938136590141e-01 1.346739865768384059e-01 6.396816373314035964e-01
1.376170425087276938e-01 1.333872769466668828e-01 6.494475546844288294e-01
1.435751017579312006e-01 1.047473719613980364e-01 6.665842965706557655e-01
2.594797766905729275e-01 1.515901106464740411e-01 6.638820751770838635e-01
1.575740552335532785e-01 1.225603347789529646e-01 6.774649113074368012e-01
1.809002440577274218e-01 1.804591076384786941e-01 6.390435726136878269e-01
1.945276607480332376e-01 1.709855890348626895e-01 5.716110825233342574e-01
1.565872077815397279e-01 1.136603788697610196e-01 6.801905158509026217e-01
2.760756366051918542e-01 1.356956134262624070e-01 5.953218306696916873e-01
1.707010067422776445e-01 1.078209569565431875e-01 6.880386091883097244e-01
1.528340900171241690e-01 1.108388935885344651e-01 6.760246483616927371e-01
2.228777292992442649e-01 1.635556600864122301e-01 5.694862902511457214e-01
1.580505145344902329e-01 1.409471684980678485e-01 6.742031329674699203e-01
2.392503083184870372e-01 1.321903784152782813e-01 6.888928111713268354e-01
1.918733341344763255e-01 1.752828779200660547e-01 6.698459973454653493e-01
2.149793336540925248e-01 1.505933995340603127e-01 6.916498631270917574e-01
1.669720071377069071e-01 1.665471436481021916e-01 6.588798848535356578e-01
2.411702095123883227e-01 8.853494634805839092e-02 6.928418378185736692e-01
1.854760448836487718e-01 7.464375209132539934e-02 6.919164392240076955e-01
2.689557126855418590e-01 1.450667697376813725e-01 5.977974636332179514e-01
2.759342421993671302e-01 1.309139457711586685e-01 6.451938360379787518e-01
1.677071409811962677e-01 1.689747490075388658e-01 6.478247667389931408e-01
1.717221896251505953e-01 1.089505867016565127e-01 6.903705485188800228e-01
2.935584805750411919e-01 1.132299974203749560e-01 6.254178835484249799e-01
2.557995777954278349e-01 1.476176397619293201e-01 5.668950773261740572e-01
1.840194939836488630e-01 9.558615603693863816e-02 6.993994015630495831e-01
2.762391061178446350e-01 1.504148052086112519e-01 6.106163295830283610e-01
2.741593577510929580e-01 1.365680561925194381e-01 6.153551680737685547e-01
2.359890248932118850e-01 1.727353337790875076e-01 5.813646000127454805e-01
1.629220990819554571e-01 1.067032224174172816e-01 6.843096065599206801e-01
2.155729282494023014e-01 7.394577033570071123e-02 6.970148107871365628e-01
2.760262508339442755e-01 1.421737457396829996e-01 5.995161386824289229e-01
1.386855711847484740e-01 1.489001484670911535e-01 6.047469092921330391e-01
1.696426258965894884e-01 1.545354410763943864e-01 6.715083015127205623e-01
1.518680713299739304e-01 1.037835836785800103e-01 6.663154995798642455e-01
1.673777486727515418e-01 8.712910990639625985e-02 6.918508001130200258e-01
2.565981011206639462e-01 1.661392913615779565e-01 6.453698982429160180e-01
2.348914030052740021e-01 1.519632727216240209e-01 6.902468557413765637e-01
2.730132222290184707e-01 1.341382269316817033e-01 6.017426208611655891e-01
2.763010602624101364e-01 1.272434279221330844e-01 6.592872695189144761e-01
2.666737902009082006e-01 1.483901378646390323e-01 5.810883512555449215e-01
1.604122051412318062e-01 1.636006155050805377e-01 6.448469682038240336e-01
1.346385256574162415e-01 1.180085665207869644e-01 6.397323319363958927e-01
1.466568569612172190e-01 1.509029880511370270e-01 6.058120576895206222e-01
1.812179329266004613e-01 1.100615382769724315e-01 6.934426854566609899e-01
2.084824294311819481e-01 1.070788626382207231e-01 6.970300215512905684e-01
2.458512975314358084e-01 1.503678566319957832e-01 5.700785738568051597e-01
1.560571604278178648e-01 1.245247718174168627e-01 6.748220698826380426e-01
2.787335291407521121e-01 1.153907024414341509e-01 6.337791099486324020e-01
1.493477995614623521e-01 1.159204743757582118e-01 6.764693624591459065e-01
1.678969257412391003e-01 1.266183935094362112e-01 6.863810467657538439e-01
2.244558017018946638e-01 9.077497314379120996e-02 6.987583072478114055e-01
2.681381580116380947e-01 1.477069557468407568e-01 5.861636357065843628e-01
2.767365102771936480e-01 1.381988102428224341e-01 6.487592368438915846e-01
1.953366051514456581e-01 1.701851040487589173e-01 6.772692982783252713e-01
2.231761605958239580e-01 1.121234059654669657e-01 6.954724845088529062e-01
1.383769953701833311e-01 1.031268043530418066e-01 6.640232307254284594e-01
1.815844630071892229e-01 1.768498800572306795e-01 5.865021593130806954e-01
2.430283049131966300e-01 1.506654754429969101e-01 6.771363699475749787e-01
2.221295267902368697e-01 1.711567540381313535e-01 5.697159420773437732e-01
2.744561535146997633e-01 1.397623760816949223e-01 6.139797388733919670e-01
2.541313563721122604e-01 1.522352025066603942e-01 5.873280080104048562e-01
2.583267408777350505e-01 1.513981601183202741e-01 5.802640695028371542e-01
1.837287092338537320e-01 1.662916159075555900e-01 6.430960639605971529e-01
1.674974571436192439e-01 1.230982992260129666e-01 6.816528123191387678e-01
1.682252935795348348e-01 9.739060832095131071e-02 6.891959287198676787e-01
1.517678016009693653e-01 9.832479359478607517e-02 6.753500334476375544e-01
2.266965660950558681e-01 1.853537869115757797e-01 6.386980113797077196e-01
1.519875125075655364e-01 1.393862882043304940e-01 6.542521952746904734e-01
2.529702903594633900e-01 9.805890294291746967e-02 6.833660727494887954e-01
2.205149551940554509e-01 1.779479627009966647e-01 6.316260895263007269e-01
1.803062482830659341e-01 9.875746847088932856e-02 6.956813734657779635e-01
1.728762160087311539e-01 1.251776208732325313e-01 6.831458968108907737e-01
1.603216298487840641e-01 1.088303925786760773e-01 6.834555412753126058e-01
1.695007948092417116e-01 1.316557494099546977e-01 6.809404820479578735e-01
1.524257425171978708e-01 1.465676724126247221e-01 6.580216225960797694e-01
1.661617144710355320e-01 1.221461909287400449e-01 6.872266647564305719e-01
1.897495979647011444e-01 1.833492716998136873e-01 6.232000070824027516e-01
1.589046506092182398e-01 1.435125728776984466e-01 6.658032227660488633e-01
2.863460692895906101e-01 1.283432174929278191e-01 6.162639972801065014e-01
1.782605178688180247e-01 1.677657323409285917e-01 6.706576271638436948e-01
1.970226447381417945e-01 7.231023821270361751e-02 6.942850957140069834e-01
2.872270391653535815e-01 1.238887080560034104e-01 6.199249727060083259e-01
1.905951095083287250e-01 1.753433617801429534e-01 6.664153488992343721e-01
2.356411908242624920e-01 1.611298869554717017e-01 6.878890109380391138e-01
1.643171561175505724e-01 1.666726387292173095e-01 6.254661777116901078e-01
2.405261986655759243e-01 7.476950179285378473e-02 6.904404687620673275e-01
1.422017179932977826e-01 1.465346412507169127e-01 6.047858300659121333e-01
2.600093041220968293e-01 1.196064287063176995e-01 6.778265023969330949e-01
2.294730721472532931e-01 1.479616284540420934e-01 6.887874309943604612e-01
2.282101961135132029e-01 9.464811738132164476e-02 6.974718740016894181e-01
1.614269406765891368e-01 1.038316786938541375e-01 6.840571964972247399e-01
1.515493881671631793e-01 1.300975386136759837e-01 6.654473826890210386e-01
1.567762000551525536e-01 1.606591584110255988e-01 6.527456344919394526e-01
2.438712113379752355e-01 1.250052640023029404e-01 6.812957455372774529e-01
2.197316689348660090e-01 1.804306441078294132e-01 6.043890214135280159e-01
1.573881848992147170e-01 1.450548234109396983e-01 6.701886741373672685e-01
1.708997549565002827e-01 1.611605177742580775e-01 5.904195015420953263e-01
2.364519354012957486e-01 1.671830670177398281e-01 6.682041057831271669e-01
2.009681941992723930e-01 1.859012910063099766e-01 6.314323386000280092e-01
2.786212039308822996e-01 9.820117230674652031e-02 6.600527988240602051e-01
2.614056427414994666e-01 1.559173726082793421e-01 6.505020251084100424e-01
1.421624196552482289e-01 1.348421126906284295e-01 6.550028947760780929e-01
2.784512293566812624e-01 1.008507882183298926e-01 6.618291835033351944e-01
1.922960029148643724e-01 1.054529696733688404e-01 6.946848013716865333e-01
2.075934328201018697e-01 1.124334594597561077e-01 6.924722595418335569e-01
1.275782367555582664e-01 1.311715347780313401e-01 6.251108961538373032e-01
1.823065660624688111e-01 1.639808731813124365e-01 6.744002176120871273e-01
2.151647782430046452e-01 8.090994622141353676e-02 6.936209476967402088e-01
2.080828040707449478e-01 1.617454672691933104e-01 6.658402506537283161e-01
1.717887162149362712e-01 1.085015935646353180e-01 6.902571279995340925e-01
2.309919902115433743e-01 1.617704698037138178e-01 5.662056641334197726e-01
2.741643885839999406e-01 1.405358503501657197e-01 6.431937065071132720e-01
1.862967691857861374e-01 8.671678081787979886e-02 6.940230300994579826e-01
1.489076460601433394e-01 1.593849876717253200e-01 5.970894097822510016e-01
2.282724358698488831e-01 1.721389023873831081e-01 6.056017089576103407e-01
2.738439001116655946e-01 1.259871225166171727e-01 6.470288233135054190e-01
1.429209079233729751e-01 1.415496058614313657e-01 6.500217513266538516e-01
2.578217927401180720e-01 1.551121818031644950e-01 6.560188176918219094e-01
1.786893497770417338e-01 1.062050563802436343e-01 6.831053072677039095e-01
2.141435091969765558e-01 1.011140350225611245e-01 7.022939781227320877e-01
2.873349087472142349e-01 1.203893206088720719e-01 6.272869745814008136e-01
2.736345544977433208e-01 1.094187192696621791e-01 6.473587329860515105e-01
1.773923511701895050e-01 1.048029063129843619e-01 6.926917680529542931e-01
1.831629335607344589e-01 1.638019557359255141e-01 6.759993592981159427e-01
1.590406126075007698e-01 1.494938386957246901e-01 6.722493295683559245e-01
2.693676814523295326e-01 1.192643007404803335e-01 6.516490177350434676e-01
2.203628573856550865e-01 1.767380039694180227e-01 5.820926800977505033e-01
2.287913150132249995e-01 1.718840041582141154e-01 6.744373246296847535e-01
2.506152281220030420e-01 1.676613429721567905e-01 6.361858918684288877e-01
1.648332597305003366e-01 9.832039647813468897e-02 6.865326158808331414e-01
1.799678686649327508e-01 1.643957657335390898e-01 6.727011295588207762e-01
1.721781448751650290e-01 1.638887625214391908e-01 6.677539428340631966e-01
1.822945596323257422e-01 1.007561185154015881e-01 6.954204337957049509e-01
1.496391587097869458e-01 1.098173483660170036e-01 6.720605514841417882e-01
1.667797474253696344e-01 1.119770562778077128e-01 6.819331400318631164e-01
1.656409503692543861e-01 9.981387275933749359e-02 6.865301472221408963e-01
1.685456618776822735e-01 1.550449805940588566e-01 6.740916438946501499e-01
2.637877623875344302e-01 1.653012516202354565e-01 6.103297074897242602e-01
2.307345792055180422e-01 1.293298850412395173e-01 6.933634042612794035e-01
2.378904259157156031e-01 1.426886228401770818e-01 6.885598492351094890e-01
2.224961844825502910e-01 9.175391503156929418e-02 6.947292575272007165e-01
1.847245684509763453e-01 1.776157246348898378e-01 5.996599162051616805e-01
2.589488899487974449e-01 1.497427487993552297e-01 5.726127545796189100e-01
2.689957555169138481e-01 1.471083321682468692e-01 5.869425314183916997e-01
2.510293162655794497e-01 8.167873254073565459e-02 6.923477341613053504e-01
2.035482541489143093e-01 7.873449028546472550e-02 7.014164097989167290e-01
2.645889089226338697e-01 1.405515150811915692e-01 5.833837753320969544e-01
1.621412920449849526e-01 1.109486924761742266e-01 6.835864249979189955e-01
2.333658597058945738e-01 1.344679005008511674e-01 6.749746912083992578e-01
2.369000573762047868e-01 1.653218945606265422e-01 5.719474690910872905e-01
2.798632569127889047e-01 1.017574468782927455e-01 6.546260996465765869e-01
1.745570269891738302e-01 1.524848359308749179e-01 6.803446896066434046e-01
1.831885646055329275e-01 1.313896182964442161e-01 6.928631178798126955e-01
1.771731636309480107e-01 1.683959997056121427e-01 6.270711034965715802e-01
1.400346842496708044e-01 1.487833797055236884e-01 6.235728222293653866e-01
1.718555326440720787e-01 1.667201911167472128e-01 6.638634605840977310e-01
2.712967351907253910e-01 1.441704287576749122e-01 5.902722045536670237e-01
2.603399508161429177e-01 8.394284929820783336e-02 6.801427351637749918e-01
2.749899170911218049e-01 1.207311787124261543e-01 6.444921253196248534e-01
1.977537933190662567e-01 8.119357542749872092e-02 6.997083706061998365e-01
1.558913791619807032e-01 1.015041554691145098e-01 6.825176054086211641e-01
1.652986089522433533e-01 1.084464924988891854e-01 6.882752888647830636e-01
2.636945650226729110e-01 1.002845315985065600e-01 6.821383570734863566e-01
2.546043791643474163e-01 1.496313155644870552e-01 5.729285188930938189e-01
2.461765151010506802e-01 1.627502674925604964e-01 5.769242902272111451e-01
2.659679213626885974e-01 1.409748999510845036e-01 5.754291313565798038e-01
2.720600129520887589e-01 8.548565248235724667e-02 6.727453907189940852e-01
1.755479561875274430e-01 8.544555375881431047e-02 6.941358086901793234e-01
1.705850840567880999e-01 1.733861220505364675e-01 6.187925184077023300e-01
2.385548093287232219e-01 1.762111837916341961e-01 6.519685945231884494e-01
1.511131372994668209e-01 1.537201382843437492e-01 6.377793598443162182e-01
1.745713516528302478e-01 1.739932178733436530e-01 6.533548562768121126e-01
1.310492495651229272e-01 1.170321095245105136e-01 6.462771789951834434e-01
1.490045811804115994e-01 1.280270545760633927e-01 6.707948518284044814e-01
2.164390714058055942e-01 1.797049104354869753e-01 5.877882423221304498e-01
2.833651237542262891e-01 1.301677699402249977e-01 6.441579824689880329e-01
1.724486411975137412e-01 1.081423829975316497e-01 6.903964068578637425e-01
1.832968165971539665e-01 1.845396436025151798e-01 6.207443293395502604e-01
1.505437935754385115e-01 1.296796519862755404e-01 6.406646575793275566e-01
2.085637422018292164e-01 1.806181557927733217e-01 5.874012498413485606e-01
2.601710063857149424e-01 1.498075365585621321e-01 5.840783514280507571e-01
1.527419789481387902e-01 9.731523068209785299e-02 6.804474424504169949e-01
2.858890852736462596e-01 1.268994522362242583e-01 6.132913780990890684e-01
2.365879412028997208e-01 1.083606741809449991e-01 6.973404707626292831e-01
1.514719391616645150e-01 1.006433737281196561e-01 6.770237795336310205e-01
2.554140851231318510e-01 1.550268831102955269e-01 6.632988735365187294e-01
2.770373876317688833e-01 1.139355176300424488e-01 6.566175826024355233e-01
2.632066467251356068e-01 1.629157107248239700e-01 5.999345513189259238e-01
1.731782246673460313e-01 1.604080793697743590e-01 6.701034229614346582e-01
1.769962585024253410e-01 8.287823818003148268e-02 6.893895426841107898e-01
1.829196695781493687e-01 9.350448621213619527e-02 6.974338185952844160e-01
2.542331376378341723e-01 1.564416913329411962e-01 5.716109771998088007e-01
2.644298228801094663e-01 1.624446016232610202e-01 5.905895588198180057e-01
2.523393776030884439e-01 1.206343409635732555e-01 6.747363849238244837e-01
2.354194061275700078e-01 1.675121446331944430e-01 6.816718854401572214e-01
2.624604936367811447e-01 9.637102563537192079e-02 6.809725739943418565e-01
2.703154281219384836e-01 1.478589778563359491e-01 5.871005810474311248e-01
2.601098662613127166e-01 1.545899460895383826e-01 6.213480453444986118e-01
1.838317444163663217e-01 1.013482784368549133e-01 6.988953767498738978e-01
1.660171974953756346e-01 1.275581188992818693e-01 6.811586033359704473e-01
2.683883187827676431e-01 1.513013512520922643e-01 5.977741029316726573e-01
2.022912558867244193e-01 1.594458752828962211e-01 6.859023879167638338e-01
2.259073381991757168e-01 8.258708383384148755e-02 6.925948151998786440e-01
1.584732939091863801e-01 1.057154289242959178e-01 6.832917110327737520e-01
2.592215750575806443e-01 1.100124296143406011e-01 6.768169357635749339e-01
1.610837259910381236e-01 9.128764944857242769e-02 6.845184708966184362e-01
2.839591587752430257e-01 1.027475675858115223e-01 6.440741294285922125e-01
2.548870005178395237e-01 1.475625437906747106e-01 6.722506738762993317e-01
2.635564847177780390e-01 7.966612297039597779e-02 6.777733172280103746e-01
1.722469320354523825e-01 1.126104988304288679e-01 6.886449135434354885e-01
1.952156132121005694e-01 1.687401907759526198e-01 6.685892301494151813e-01
1.996750735363997942e-01 7.648059646772768783e-02 6.997726720320918137e-01
2.244063492134191207e-01 1.782059401525415421e-01 5.882766705661240936e-01
1.673996698681858297e-01 9.462057088898946644e-02 6.885810565598108335e-01
1.593928924497302058e-01 1.235101826400066272e-01 6.762879709192100020e-01
1.866788808779271946e-01 1.600444305854517302e-01 6.718130240986108781e-01
2.557111176222444104e-01 8.627667768131822013e-02 6.741469360689702484e-01
1.778265343008985644e-01 1.109525033722823517e-01 6.931016831553118429e-01
1.677153255530736131e-01 1.059952211512098230e-01 6.877611786791033577e-01
2.141572196114732429e-01 6.971897299378523871e-02 6.962515523805017370e-01
1.617745849864574426e-01 1.206714180171116202e-01 6.655871778161932539e-01
1.686994773549259918e-01 1.704170862090133021e-01 5.943463030005392556e-01
2.061598338440939204e-01 1.465200645734745233e-01 6.722819013251895015e-01
1.810708793248611559e-01 1.749099027900355430e-01 6.686547758952228193e-01
1.807637138414917299e-01 1.613693998725248546e-01 6.826744868435706826e-01
2.047967387950811735e-01 1.885641868765864926e-01 6.142131861578514762e-01
1.874478085433821384e-01 1.635474831783939320e-01 5.634557043181118718e-01
1.441155203259499862e-01 1.046012265466169655e-01 6.693591768653862628e-01
1.868886505001571829e-01 1.851373945037091406e-01 6.562038234747628040e-01
1.627084198932752246e-01 9.848479798943471364e-02 6.876575137894227474e-01
2.545394504729082685e-01 9.319287726114053316e-02 6.832325423822803723e-01
1.778419792533164623e-01 1.026173459635169732e-01 6.930369419347582882e-01
2.765153218635763022e-01 1.295190485813234871e-01 6.003718355305126542e-01
1.715415056889051104e-01 9.737296617151661171e-02 6.883389045723223854e-01
1.609011388272504894e-01 1.109055429228966716e-01 6.856284082222374732e-01
2.052568904354739043e-01 1.798392400815604086e-01 6.278070434070293082e-01
2.248332814781735245e-01 1.195166366141045267e-01 6.905393018465193489e-01
1.630067036046828899e-01 1.069608567243099106e-01 6.740038642358193721e-01
1.947922435374953298e-01 1.790145584773870091e-01 6.543600219542272667e-01
1.494380974898213144e-01 1.334920021037613314e-01 6.665996314621920327e-01
2.629466746790901643e-01 1.513842170926547881e-01 5.763555878063995053e-01
1.562418675606400964e-01 1.143531580250813362e-01 6.828832476161168508e-01
1.647014445064098886e-01 1.098190572117219432e-01 6.868217693512290722e-01
2.728491888589769654e-01 1.521078647506834414e-01 5.943766074845915348e-01
2.076595657295557673e-01 1.563233512958134286e-01 5.736995624932867965e-01
2.109269648953814857e-01 1.870963066701536726e-01 6.132386017272257739e-01
1.490519965987256168e-01 1.171156550341358182e-01 6.689588766135503572e-01
1.945589537498848831e-01 1.867089484798053478e-01 6.380723654515051413e-01
2.776609736143874629e-01 8.884449706954734849e-02 6.577246084965017170e-01
1.678384755193649269e-01 1.007021464947582268e-01 6.866438226381204046e-01
2.705007403645249831e-01 1.607020345915572967e-01 6.199150789771058490e-01
1.778705211316664314e-01 1.605169012967495035e-01 5.723309929989867095e-01
1.862606664225596731e-01 9.984822510854883537e-02 6.942902849105857532e-01
1.560483785023866754e-01 1.119245234385334020e-01 6.809456606576904658e-01
2.112531373319773975e-01 1.232158399766103557e-01 6.987200141227352113e-01
2.849164160790965128e-01 9.808084117127260915e-02 6.516848033842748134e-01
1.532013075427202942e-01 1.241750120659359108e-01 6.768160222873049747e-01
2.055710086924606717e-01 1.523778671111840066e-01 6.948041442440811011e-01
1.627855549660688628e-01 1.166384571850724583e-01 6.811857692031872968e-01
1.636526090957775015e-01 1.089961595805159777e-01 6.885556728465734855e-01
2.034903107779302278e-01 1.160975134605971293e-01 6.929270765380951547e-01
1.624476129972520499e-01 1.658532142450108438e-01 6.391470077546618223e-01
1.785020537590961687e-01 1.716252211153804219e-01 6.744703293534604072e-01
2.023421093855125030e-01 1.729642549678550578e-01 5.708832477157493868e-01
2.264872287067382362e-01 9.951697202611559101e-02 6.924822179107705811e-01
2.856717460115416607e-01 1.025316474443354886e-01 6.348359452477875253e-01
1.510248987047430880e-01 1.433075240176008014e-01 6.544442548069080434e-01
2.154952996885220462e-01 1.666596060326146211e-01 6.510598504474728321e-01
1.785197800652323363e-01 9.139375318330078546e-02 6.935818410324831040e-01
1.743827583036435813e-01 1.748288451786781383e-01 6.086053446850012705e-01
1.909367920194134094e-01 1.718879007606137488e-01 6.336003050730578678e-01
1.949461742342740167e-01 1.795135235138615726e-01 6.236750444671916860e-01
2.041481271446838053e-01 1.500476133595176620e-01 6.897182176452311131e-01
1.754785067870617554e-01 1.104543108302276505e-01 6.933395524801250209e-01
2.905848871064960481e-01 1.250856858121512372e-01 6.121350980341586645e-01
2.629454976098367647e-01 1.166623591466471044e-01 6.715755815500616954e-01
1.671397696028136259e-01 1.145945108238277110e-01 6.861765645172973604e-01
1.926680436839178778e-01 1.560995137173927516e-01 5.647938674763248734e-01
1.633904933565304973e-01 1.314971414356396751e-01 6.820197213086258703e-01
2.886976492987164411e-01 1.186199992492687066e-01 6.278322630649809666e-01
2.671814392895606183e-01 1.286382846272467739e-01 6.463627074760538438e-01
2.400916634972945218e-01 1.209055292493596417e-01 6.903970252391298246e-01
1.903765170060749412e-01 7.239258619330160571e-02 6.945057013097510890e-01
1.432349324684744629e-01 1.182528387879846071e-01 6.634520098200091809e-01
1.770347302020303382e-01 1.324096502048799640e-01 6.826166906232038478e-01
1.550229755431994372e-01 1.006527058044168199e-01 6.827818248410029156e-01
1.684864250715674971e-01 9.988823170675420471e-02 6.865595146385893299e-01
1.794622064562379216e-01 1.002131936741878226e-01 6.963834142692582052e-01
2.062149229472916567e-01 1.763936833165014040e-01 6.009101955628033398e-01
2.468233584829551130e-01 1.541925685171379179e-01 5.621252979432503905e-01
2.510119346131980400e-01 1.604514294633716254e-01 6.259683393604225099e-01
1.336651264373189263e-01 1.219200583707564789e-01 6.337355708160986589e-01
2.906061949887849827e-01 1.253981622566545384e-01 6.115578962730772172e-01
2.448132696008318843e-01 9.225812846980599446e-02 6.932503362013392456e-01
1.626145850342676225e-01 1.546668431164532898e-01 6.491170465675710766e-01
2.218911364522863916e-01 1.568673577712139944e-01 5.639101522684071277e-01
2.141498444455788852e-01 1.814287905382827581e-01 6.535948930980115534e-01
2.851558858413539288e-01 1.361257037257336266e-01 6.360190088591211044e-01
1.908189943926722199e-01 1.470446369307271683e-01 6.914523830858489983e-01
2.424394031461019339e-01 1.574078967321647093e-01 5.696665334833903582e-01
1.634773667908229755e-01 1.118468609709619421e-01 6.851210837272876386e-01
2.475035057812235983e-01 1.557355485029037756e-01 6.718147055755936403e-01
2.448971567625230217e-01 1.083061946698263417e-01 6.894197079165228503e-01
1.757679578526140651e-01 1.069725362818328696e-01 6.920205515576230981e-01
1.588647030628195234e-01 1.571161994125937489e-01 6.592376730288582731e-01
1.885059819388902047e-01 1.752026433488121926e-01 6.751428173280117351e-01
1.939081243257795850e-01 9.798760906128332893e-02 6.982114269368880910e-01
1.597024166055603933e-01 9.907477381591106580e-02 6.831044700652418866e-01
2.444378403219045481e-01 1.735101060846030996e-01 6.035151904914399790e-01
1.425923344494064438e-01 1.198461133825906300e-01 6.635077722192602723e-01
1.404648431769632833e-01 1.209210138305590182e-01 6.625580073652405089e-01
1.363296304455627050e-01 1.385663753979935742e-01 6.189759992223655694e-01
2.217181800371856859e-01 1.792370703268641452e-01 6.689641461464198580e-01
1.938096558760211974e-01 1.628319406354121479e-01 6.813555537034117204e-01
2.702963638503593224e-01 1.436833039392047540e-01 5.784319525800273309e-01
2.679314412616897179e-01 7.972366547547896087e-02 6.708893775228281786e-01
2.343893274284812311e-01 1.554128730932777813e-01 5.643147743425032115e-01
2.587515253777670776e-01 1.611585191032349207e-01 6.073517184735587326e-01
1.609439329292437215e-01 1.481083756027172516e-01 6.674609539191622698e-01
1.617935222704519616e-01 1.604449766172407199e-01 6.380622086686214001e-01
1.823143950834712479e-01 8.449753078446167742e-02 6.927313137437037804e-01
1.726769900223078802e-01 1.773896318911031000e-01 6.316359094715751077e-01
2.515738674290503574e-01 1.593507811962425746e-01 5.932033408437914490e-01
1.587210882817044200e-01 1.028025231192043198e-01 6.830490226301118017e-01
2.670771822553756891e-01 7.953308122703399430e-02 6.700067717761534203e-01
1.546654004422606810e-01 1.295170822725237592e-01 6.740902024252204416e-01
1.491124207093696419e-01 1.030091127991396016e-01 6.769686749367375134e-01
1.729562237975239558e-01 1.055120574014535989e-01 6.919559356009881146e-01
2.848728674012878104e-01 1.315980884516416149e-01 6.273483505200196930e-01
1.646934785466698248e-01 1.617923463101707537e-01 6.621179152613022589e-01
1.955001873450572247e-01 1.488247870030490472e-01 6.825329865186332556e-01
1.991665547579923035e-01 1.439404889088849171e-01 6.924242739817568770e-01
1.440048033365782798e-01 1.279779431914053189e-01 6.494603083210790384e-01
1.749400168364174668e-01 1.692153459929925940e-01 5.774728917246655380e-01
1.299951243223649855e-01 1.329264445867186506e-01 6.408137444612295175e-01
1.731871711155624771e-01 1.597841412442641829e-01 6.746357193055424473e-01
2.791536360911729964e-01 1.239144562518464388e-01 6.523345319244235885e-01
1.810452535954916176e-01 7.727949061058682345e-02 6.916205365457582799e-01
1.775704324938928436e-01 1.542723955761580168e-01 6.813641673414085886e-01
2.389312804881039420e-01 1.803321797021916195e-01 6.512962248489196915e-01
2.504078871095791747e-01 1.696818027856432098e-01 6.040692208026798848e-01
1.748616188811784600e-01 1.206749357940913175e-01 6.808362550635196353e-01
2.190061053827836723e-01 1.906185830407294279e-01 6.405716933675912328e-01
1.904637674021003313e-01 8.987381653519538327e-02 6.971059634531256988e-01
2.109628760985612916e-01 9.139112742324161098e-02 6.973303119754570290e-01
2.114115376279596670e-01 1.772152308913480800e-01 6.713988578802483342e-01
1.679679269695474875e-01 1.526649964425041694e-01 6.733560293576914546e-01
1.600375911734590040e-01 1.259973681286159219e-01 6.763368726424527910e-01
2.119271609111041677e-01 1.757612248177990721e-01 5.858957434406580900e-01
1.493762151187611464e-01 1.451851778555385830e-01 6.549004336972865659e-01
1.593718856064043898e-01 1.217116962647806083e-01 6.806190763880265449e-01
1.748458784101517005e-01 1.534567370165165756e-01 6.762376568015698863e-01
1.735875755448679780e-01 1.082762175622006134e-01 6.917327354348992152e-01
2.436237956050780473e-01 1.053405711355223651e-01 6.810124766409066943e-01
1.522449497002716090e-01 1.636065163882616524e-01 6.216314761948348311e-01
1.643599657779474810e-01 8.845321506884416818e-02 6.850827136197020772e-01
2.741138119635808112e-01 9.389787752868908322e-02 6.597014018527236345e-01
2.278142041809902985e-01 1.208902971448524433e-01 6.510582254101212607e-01
2.588896478497189069e-01 1.501948005153135313e-01 5.764600867633019599e-01
2.628179266535262126e-01 1.005744421505626041e-01 6.743791517270498748e-01
2.826062615963529923e-01 1.273144315070208477e-01 6.041155433148933662e-01
1.426414158290292833e-01 1.165147796685127302e-01 6.573332008723811182e-01
1.549399361227741800e-01 1.223495638757791382e-01 6.752106210039401368e-01
1.825306470259019098e-01 1.184416121119856863e-01 6.981614029457589021e-01
2.621309691722574775e-01 1.517825750344046765e-01 6.077805735276259336e-01
1.694786891618710045e-01 7.772782871936169402e-02 6.927054957045180039e-01
1.806567839238854556e-01 1.726835112962341601e-01 5.807790481861248022e-01
1.694443386443783006e-01 1.667667486844382485e-01 6.597405271277337890e-01
2.221112265579171519e-01 1.831928236051680869e-01 6.150738985442659734e-01
1.729059082988916307e-01 1.042467924821069425e-01 6.891628322589191669e-01
2.201492073771032232e-01 8.184771236851515197e-02 6.971001222826456178e-01
1.647271093881933490e-01 1.735174058034850697e-01 6.167149390759980587e-01
2.600244833100351372e-01 1.379497826356512746e-01 5.862900189612801904e-01
1.712610374041212691e-01 1.542765524623708195e-01 6.669735976299528968e-01
2.043693158883814753e-01 1.584653607545253584e-01 5.663153750087847049e-01
2.453319123534633273e-01 1.394903889505223760e-01 6.797763300521021401e-01
1.585864298528629757e-01 1.597472387891402668e-01 5.830754499323442808e-01
2.294942052171630997e-01 1.285878558191858589e-01 6.833036336736872940e-01
2.681857646027808739e-01 8.488811615803104615e-02 6.784446480327334106e-01
1.555459499193415085e-01 1.257074075337438201e-01 6.728243294044790046e-01
1.508277559959272096e-01 1.290863945590637052e-01 6.685952613937109490e-01
1.820565414134775184e-01 1.662250893901810189e-01 6.576314847929498608e-01
1.543393126723879571e-01 1.073201249214163350e-01 6.802588831379831058e-01
2.846984129202153602e-01 1.168939208244798855e-01 6.293791079124964050e-01
2.660171896110489764e-01 1.259927214765801384e-01 6.683607922664357437e-01
1.948577940084870452e-01 1.110500825155515126e-01 6.951393621503803022e-01
1.771405817015992423e-01 1.682867886604594576e-01 6.730263408209731235e-01
1.755405564849688571e-01 1.651731209218180174e-01 6.706992060911775022e-01
1.928574738219004381e-01 1.803037076910166681e-01 5.957211771860964067e-01
2.524743122058009104e-01 1.527416171639658093e-01 5.689697232236264890e-01
1.421515687437057140e-01 1.120592589372877979e-01 6.749019883620845928e-01
2.480792269416328688e-01 1.605319504782840578e-01 6.685085737639879788e-01
1.391011192910163174e-01 1.080878268133787790e-01 6.482104775481003500e-01
1.364247208753900376e-01 1.080489576783371791e-01 6.574740956098270583e-01
1.408120546597965428e-01 1.170555776171025159e-01 6.690632652296925054e-01
1.333855917033832106e-01 1.105353147779264827e-01 6.643464858373693271e-01
2.514325828775187954e-01 1.516302622257587052e-01 6.747139167422981920e-01
2.555409897612592185e-01 9.889063644889917182e-02 6.679222772380778439e-01
1.700456952310057945e-01 1.647305054217433062e-01 6.515220664143358542e-01
1.842031618722679287e-01 7.533916974023539825e-02 6.862536388224558248e-01
2.950458587054104465e-01 1.173025155195946134e-01 6.163106317799306177e-01
1.887237583705162480e-01 9.901607994616334896e-02 6.936640705951024888e-01
2.705861328482627171e-01 8.477420589679303398e-02 6.617714353270507388e-01
1.603632047913400860e-01 1.411745246280962929e-01 6.736987672341054889e-01
2.184937737296970828e-01 1.019254332739275570e-01 6.887050200047277748e-01
1.929427912553331459e-01 1.052372871777493141e-01 6.978459759320549960e-01
2.340396410128150473e-01 9.217545380615498052e-02 6.967949122363777947e-01
2.479309134010555526e-01 1.718151691589767383e-01 5.993175391915945838e-01
1.550473151157895635e-01 1.313229847569978292e-01 6.744973401044360717e-01
2.409417586667656486e-01 1.584384226095981729e-01 6.755540835443375469e-01
1.573254762006801588e-01 1.153386936777539007e-01 6.842499630748319905e-01
1.503412259059535294e-01 1.431608668101186921e-01 6.620026312936921897e-01
2.005886550797370271e-01 1.152751274474964616e-01 6.973362237078433168e-01
2.143297543279598927e-01 1.538184121423638862e-01 6.855859111198104872e-01
2.577661861880670702e-01 1.469415907191189696e-01 5.715997753436294904e-01
1.874266902690959191e-01 9.041075661268233032e-02 6.965893636516452547e-01
2.761410956296102559e-01 1.404744096879360082e-01 5.856529854443064398e-01
2.497625617266100162e-01 1.547337240823152271e-01 6.670404929353068724e-01
2.542012226608119096e-01 1.693177370426977579e-01 6.071143567559323939e-01
1.339553721508608408e-01 1.182710946821225045e-01 6.549240561210016853e-01
1.725284332086675088e-01 1.751981814520668645e-01 6.502024534901267305e-01
1.770666169544774238e-01 9.230313979390869505e-02 6.920821815431126289e-01
1.924956971910325443e-01 9.314377105974083748e-02 6.935513756208782077e-01
1.645466252865123435e-01 1.609793453187741141e-01 6.290292065814934164e-01
2.637824016647912773e-01 1.335864043025150605e-01 6.674902778247668866e-01
2.503417750796619323e-01 8.851895802878700925e-02 6.803860935417749278e-01
1.858301397441006197e-01 9.838448317682133015e-02 6.972484968511825087e-01
1.494100373679803639e-01 9.129955090443200860e-02 6.760737390216084997e-01
1.772447820361507664e-01 1.118797404455093986e-01 6.676994633846118354e-01
1.722058627349834503e-01 1.662597138617484538e-01 6.379168287681864502e-01
1.807802394925759615e-01 1.728790902702058152e-01 6.619791080804680039e-01
2.650492606444292965e-01 8.701667051486693116e-02 6.727725829362043442e-01
2.783367263540524328e-01 1.376691080048992322e-01 5.975070759242468998e-01
2.767834106512040426e-01 9.298137092559888295e-02 6.623723257771899631e-01
2.364471331147593169e-01 1.094791793594215301e-01 6.907488855920054238e-01
1.577813114590526922e-01 1.017579141153236860e-01 6.818724796133902588e-01
2.288824123770547836e-01 8.865584394685523117e-02 6.984146844811990329e-01
1.878494559326667201e-01 1.604324697373806785e-01 5.608086825255385044e-01
1.819093661156493680e-01 1.642710145206014438e-01 6.779951769631946679e-01
2.896683285413709230e-01 1.192286707158051740e-01 6.181057695764498039e-01
1.928682716374056916e-01 1.375192390059189751e-01 6.863478542710299557e-01
1.927547291275658603e-01 1.735384704395498967e-01 6.549428207612407737e-01
2.594491827273792683e-01 1.114254830411361558e-01 6.804851865001689815e-01
2.333564979168641917e-01 1.767242961700879189e-01 6.097723614408296910e-01
2.038211474710398263e-01 1.037752024505736587e-01 6.977330511478525565e-01
1.444467928918766186e-01 1.375043901117981582e-01 6.267241584995785209e-01
2.793352794540210904e-01 1.418003940648543959e-01 6.027845214253828576e-01
1.844750279528092340e-01 1.678345502958210611e-01 5.751179407206356009e-01
1.726354553908026890e-01 1.601602230955541661e-01 6.731172761590911158e-01
1.709970120028563856e-01 1.011459755995644250e-01 6.919550407076134890e-01
2.883704152982018987e-01 1.193415952437556909e-01 6.084229967562035934e-01
2.757931459313059941e-01 1.327925058400819813e-01 6.260524341511117807e-01
1.622631327815513003e-01 1.738724605557020741e-01 6.367819705061021907e-01
2.190493270891927524e-01 1.870465277497593559e-01 6.551179167379125312e-01
1.713182077994063746e-01 1.096461749564882071e-01 6.912281205012738017e-01
2.281471333188150596e-01 6.926851301161332519e-02 6.945072310453977993e-01
2.726860052078349805e-01 1.478183955473097444e-01 6.130808488248778998e-01
2.439587591498056374e-01 1.063510194863676872e-01 6.856807480518883890e-01
1.693537261695221008e-01 1.122702837818140009e-01 6.914835693771974601e-01
2.373318622477666451e-01 9.464450045916061871e-02 6.924366782918009999e-01
1.882890594662373074e-01 9.878289687908980987e-02 6.961055306260542919e-01
2.216266471097210200e-01 1.461079261120978856e-01 6.692281699890538782e-01
2.397136455699224178e-01 1.728895317491739858e-01 6.660213361180699065e-01
2.864569222348393174e-01 1.080866839201120866e-01 6.320001342618883911e-01
2.507521818514159562e-01 1.733577648624800571e-01 6.323209923895918294e-01
1.450496409016888144e-01 1.010596289284200200e-01 6.556822389383261118e-01
1.682495725663837038e-01 8.551444355787488072e-02 6.936884946311597799e-01
2.763301385690872247e-01 1.465085906039033381e-01 5.951992065182490910e-01
1.963651700433289571e-01 1.885781766330377196e-01 6.404523859926116724e-01
1.535146682296714138e-01 1.501096931175542049e-01 6.585164657594172466e-01
1.999694335621057806e-01 1.374063644283634589e-01 6.943440161122688137e-01
2.438275113223648261e-01 1.665333165299504592e-01 6.758129009678000010e-01
1.856237757900601193e-01 1.608300970524194073e-01 6.791524196122737944e-01
2.814592026871571839e-01 1.236225155577479196e-01 6.317846602025702918e-01
1.834570299385657743e-01 1.001389384698564144e-01 6.921654604229702246e-01
1.333083029444985801e-01 1.329480405869072901e-01 6.440324631128917510e-01
1.528825351422250511e-01 1.362676850276484386e-01 6.664821023936676747e-01
2.412710397699673326e-01 1.770819232161208456e-01 6.114351877992121320e-01
2.481630084939720482e-01 1.608363558240037683e-01 5.942031711390661775e-01
1.753948150575785070e-01 1.037623180353162283e-01 6.933082881618696236e-01
1.891689175367184672e-01 9.190939986193583100e-02 6.866607877345232147e-01
2.467442375074604954e-01 1.693076310370012771e-01 6.645884179751745391e-01
2.739752176779354231e-01 1.308006547538917985e-01 6.550363170010823355e-01
2.617444101580351234e-01 1.304211375123973116e-01 6.711556057443960333e-01
2.269798511919314810e-01 1.093893246383512152e-01 6.980247366491195704e-01
1.631538357059569011e-01 1.080415410405098225e-01 6.864406313410568172e-01
1.388173862207430220e-01 1.354662136900120772e-01 6.391870109134631939e-01
2.409735784482731069e-01 9.517602473832054155e-02 6.903158502951849407e-01
2.188925661939986611e-01 1.244988124072659297e-01 6.925572441344249874e-01
1.411358302990445290e-01 1.270389215100627411e-01 6.603247246791789093e-01
2.649873561458947480e-01 1.499275718135801572e-01 5.844365620424750718e-01
2.731641405271666434e-01 1.444277998672545416e-01 6.283818028903812580e-01
1.926786750772525314e-01 1.572121903905684126e-01 6.858730148345527633e-01
2.200567689666166893e-01 1.851731025209067127e-01 6.195743170071769113e-01
2.555465040435725421e-01 1.492738837285956244e-01 5.763864476311747476e-01
2.387895742853890224e-01 1.703555320909336257e-01 5.959809460228995270e-01
1.986766804037812251e-01 1.936257092598086260e-01 6.416056434388711649e-01
2.357386296089203914e-01 1.537200401646555692e-01 6.825702673281822674e-01
2.138464504752238815e-01 1.946490489190504380e-01 6.379065326349108167e-01
2.442412409890076519e-01 1.652354139477218153e-01 5.790414494759417163e-01
2.162493732015276782e-01 1.771940612912153434e-01 5.817573600503872511e-01
2.927668616179823768e-01 1.230457676405987133e-01 6.072715650522193531e-01
1.824470216535678813e-01 1.688113878726843486e-01 5.982757424485802833e-01
2.194726209090731017e-01 1.623759676626823634e-01 5.676194360439326125e-01
2.111180618553623878e-01 1.662255973333080783e-01 5.664923641491952377e-01
1.665223932484190816e-01 9.893444139324303332e-02 6.875160740782059188e-01
1.489793402514791032e-01 1.402794720484488167e-01 6.595673112886059064e-01
1.608047394935779029e-01 1.519023633527047668e-01 6.606408152993604732e-01
2.382843123389812301e-01 1.721789877357791931e-01 6.744711390304815035e-01
1.627598595996188890e-01 1.077037028528195356e-01 6.881888265647058134e-01
1.709857169557009726e-01 1.404106374666227453e-01 6.715863508460442333e-01
2.506698927017452783e-01 1.541996687584537562e-01 5.722079490471438934e-01
1.846858701240685352e-01 1.257784218253464315e-01 6.915586615448796604e-01
2.061843280027091108e-01 1.799701726217291242e-01 6.507998791582092490e-01
2.304077871546423295e-01 1.386879982142041612e-01 6.883038816800248760e-01
2.264767055606884405e-01 1.597706506805001980e-01 6.772215411553721420e-01
2.674185661348694731e-01 1.381159624916651341e-01 6.249258409313280804e-01
2.691264662888276926e-01 1.161266397298906100e-01 6.754577734869799954e-01
2.073476493054184633e-01 1.905598873922313419e-01 6.432703394836246646e-01
1.805393830772292763e-01 1.631778955823695310e-01 5.755584828986681778e-01
1.436789116510704400e-01 1.405702235479062978e-01 6.587545484783360328e-01
2.420932946198838809e-01 1.770135049827169793e-01 5.973302499397388221e-01
1.862112269512816720e-01 9.241682985913007853e-02 6.944983999656118012e-01
1.737022703289537728e-01 9.249632546960107060e-02 6.945303568926551874e-01
1.660918475600273725e-01 1.710448624400827122e-01 6.442806683158213144e-01
1.704945803532886273e-01 1.241879826075474452e-01 6.891059109521585624e-01
2.737935582989498573e-01 1.444105485819879298e-01 6.188895113984630436e-01
1.951236769109876978e-01 1.148439799062335592e-01 6.921209941995298820e-01
1.413251561444338611e-01 1.385142735850117268e-01 6.520708427421101350e-01
1.668385358892965353e-01 8.599310619977582060e-02 6.869847811853253550e-01
2.802818089529089951e-01 1.449847702179241915e-01 5.916235727434810965e-01
1.690579370335644482e-01 1.248825131638331698e-01 6.845682967293086341e-01
1.774492814749186187e-01 1.293222927606209050e-01 6.909966581355188042e-01
2.639305330992957610e-01 1.467082580902350775e-01 5.835781419177908935e-01
2.211518644708700132e-01 1.630898502636589364e-01 5.649300380612832795e-01
2.369546693775224366e-01 1.860147414206460292e-01 6.360975422864048046e-01
1.406862247109229025e-01 1.170953338146404621e-01 6.627268337570421108e-01
1.582806875026355198e-01 1.159015997389720720e-01 6.846538563143682588e-01
1.381019194321495003e-01 1.303847572420268330e-01 6.534844422636365557e-01
1.597626672614401167e-01 1.048884000627274132e-01 6.846403961438169983e-01
2.636320207714372144e-01 9.427058425147369358e-02 6.689836674445518439e-01
2.682655299985282626e-01 1.465832317770023596e-01 5.888957252509665619e-01
2.026200111395705661e-01 1.667699939195100567e-01 5.657518604891631497e-01
2.235616328321909652e-01 1.367570648825652269e-01 6.913683660225211636e-01
1.660709158134256458e-01 1.658561043389223111e-01 6.116937604271599493e-01
2.475740220889556809e-01 1.761292826480486962e-01 6.195670398330186401e-01
1.643190726287248604e-01 1.317544500443408317e-01 6.776374195230094877e-01
1.513016098470250648e-01 1.474024370671609407e-01 6.436628381857827375e-01
2.544126117416342647e-01 8.372003803450261961e-02 6.847880809237245625e-01
2.779482667296868104e-01 9.687218058741048354e-02 6.511867898757687234e-01
1.336770805045787436e-01 1.383708558081018780e-01 5.982722115433237731e-01
1.937477396206536973e-01 1.273667547805145683e-01 6.973415462851024760e-01
1.878375797539162950e-01 1.068936898198111496e-01 6.970438259923903423e-01
1.328674968963446945e-01 1.101566014055606335e-01 6.592596083071624591e-01
2.199347289049553567e-01 1.642971639265314310e-01 5.584555818297523011e-01
2.796226042321170446e-01 1.118678021920708476e-01 6.637106372014887068e-01
2.656403782273468739e-01 1.479845981165732738e-01 6.222900773431846444e-01
2.730949018080769952e-01 1.199142263097359162e-01 6.653936819456408580e-01
2.395782523740594694e-01 1.816976083046114576e-01 6.413098633456825182e-01
1.706992234375392659e-01 1.654593999326089415e-01 6.656609296081235083e-01
2.863476771558269296e-01 1.143318337537292118e-01 6.121806247685357416e-01
2.163125209102009228e-01 1.922621915586718300e-01 6.453011775136126005e-01
2.874574593327041683e-01 1.175833464628102398e-01 6.357196311303114911e-01
2.638823524375732421e-01 1.494417923703716955e-01 5.847767531680536646e-01
1.887835837593622168e-01 1.419884779849841516e-01 6.826711231272588609e-01
1.560860008224857487e-01 1.194202861489799122e-01 6.776343609140581536e-01
2.546214754031937977e-01 1.717578962480532656e-01 6.205725046395548228e-01
2.003162607808673945e-01 1.648200256893215532e-01 5.607060867807033278e-01
1.555716044479044380e-01 8.672612597841045101e-02 6.779775854165944748e-01
2.147716821037435886e-01 1.152594995860537486e-01 6.984790532834519450e-01
2.767767849191607454e-01 1.370324089144996094e-01 6.344214655190393293e-01
1.681298720618918663e-01 1.675076245077520565e-01 6.570989115771443956e-01
2.192406255268680160e-01 1.829126150544317375e-01 6.625804586786333550e-01
2.262728095920361893e-01 1.538873104195390418e-01 5.665909865845597526e-01
1.547058046264634945e-01 1.497123273021177259e-01 6.552860519614316370e-01
2.774744872383007044e-01 9.519425266394591911e-02 6.652038868345621081e-01
1.575739410718992040e-01 1.390821884398953379e-01 6.641036528542192396e-01
1.674791093125718722e-01 1.600142168756513439e-01 5.748556796988897322e-01
1.641405838758663582e-01 8.271333193564096853e-02 6.822717580593493647e-01
2.653404653291792092e-01 1.546356465332871521e-01 5.982647254130051273e-01
1.720675367155714008e-01 1.052843224256856253e-01 6.934352201968849716e-01
1.504340703238819521e-01 1.414479799726268971e-01 6.613213295775361988e-01
1.892913727449822558e-01 7.671633480977944897e-02 6.982658355996693711e-01
2.088192766682585855e-01 9.784921180102970628e-02 6.947101060782893134e-01
2.451357701655375310e-01 1.759925416550281452e-01 6.628820438871630971e-01
2.784999583753574592e-01 1.268612484741470370e-01 6.158608155615243884e-01
