3.880316188014420326e-02 1.183011386326907471e-01 6.315124530317223206e-01
7.215967363072632937e-03 1.961068749511142573e-01 6.838533051892415893e-01
4.319667394334066740e-02 1.345612378908547790e-01 6.466601189113744264e-01
1.219022854743817726e-02 1.446347491264537433e-01 6.308664302913992161e-01
4.236130621410501024e-04 1.500466458548269932e-01 7.263960139483135459e-01
-1.668153372632621284e-02 1.176934747157442340e-01 7.084858262912733240e-01
1.582912966757774043e-02 1.817293124556935702e-01 6.580628146541410706e-01
-3.089272868509080477e-02 1.334849290884842499e-01 6.289690372988170353e-01
-1.541591454853073404e-02 8.580223464239847275e-02 6.955815050838067837e-01
2.166738687997186302e-02 1.281518033496909792e-01 7.184949993329186047e-01
4.295348479072533254e-02 1.409351449230295261e-01 6.576238614407088345e-01
-3.165409540710394098e-02 1.671700583677762086e-01 7.099521948494056378e-01
7.379111009557382493e-03 1.849966685352551210e-01 7.011513418215359339e-01
-1.557583210842886784e-02 1.269489566179167472e-01 6.219785191705055061e-01
-2.815461880289597818e-02 1.477291546601663397e-01 7.007416661746866948e-01
4.906989114281686687e-02 1.135883031008570465e-01 6.626700968062256836e-01
-2.247036060342084973e-02 1.419342404648910594e-01 7.165850763705505777e-01
-4.233130838169217591e-02 1.280644342797902513e-01 6.437330695766564359e-01
-3.458747357263516377e-03 7.800239437641563744e-02 6.916813367708591898e-01
2.433780357331674291e-02 1.507366811340908885e-01 6.411784377980787042e-01
-5.613304699427378378e-03 1.086534090615721981e-01 7.104705747644831648e-01
-2.597065677892632443e-02 1.303098054034509956e-01 7.091379887564034368e-01
1.515766211947076891e-02 8.709499827049835274e-02 6.996636462233319920e-01
3.050454330783649790e-02 1.157058708255962742e-01 7.020848518402622584e-01
2.716405705324504566e-02 1.891630399731572265e-01 6.893519427196809213e-01
4.764291819852032456e-02 1.356434868674832039e-01 6.322502048417484311e-01
-1.331304647950194882e-02 1.720201967381992381e-01 6.535733282090251395e-01
-4.168571457919994366e-02 1.228591627083685106e-01 6.856430991894210125e-01
-6.580437758860824618e-03 1.168530713304631596e-01 7.116206704236121006e-01
-2.781054856974084222e-02 1.241119336215425195e-01 6.392841419733971131e-01
-2.379253756315979906e-02 1.814430009710148728e-01 7.046798593988566894e-01
-4.248589361793102259e-02 1.399763235446660203e-01 6.610438808817369338e-01
2.767164442229570406e-02 1.294965692581758199e-01 7.154151749669395155e-01
-2.449333586465718068e-02 1.409189750745721004e-01 6.394486022800052183e-01
-1.397993732461535674e-02 1.139937119981286467e-01 7.085146399713311283e-01
2.635680967819739248e-02 1.345018903692669354e-01 7.200070933059159461e-01
-9.469121599420565749e-03 1.037118030213806108e-01 7.039476307180351222e-01
2.289495126881649009e-02 1.571105299037328651e-01 6.446348664360845859e-01
-9.619100049584158180e-03 1.437136766391654275e-01 6.293514771085694237e-01
-3.503837913408607528e-03 8.627576905598963175e-02 6.995515919891508450e-01
6.769359458484758285e-02 1.558464242075209283e-01 6.290890399926244436e-01
-2.881837091580153123e-02 1.521340135343371147e-01 7.065084922011690693e-01
2.557368311061741437e-02 1.691029635580544865e-01 6.545780864845002212e-01
-3.861280969704995736e-02 1.361416135794393523e-01 6.462141193363571956e-01
4.640140165682009321e-02 1.256744557199851176e-01 6.590272147531790470e-01
4.337162720406886190e-02 1.212727676510834546e-01 6.701650035078539069e-01
-3.667969483948523013e-02 1.021722161451340954e-01 6.874140743785190910e-01
4.059684240255548304e-02 1.139037854919124210e-01 6.750637226186341211e-01
3.760948738765338556e-02 1.840732423789011862e-01 6.698134780249749287e-01
-2.857769280067316148e-02 1.144901565985276121e-01 6.979633353373465576e-01
-2.791961815875183134e-02 1.413889418245253549e-01 7.119782294921171983e-01
-1.528141577376438201e-02 1.050127749223776497e-01 7.029912957511462723e-01
1.393684952729026816e-02 1.359403294695004649e-01 7.179614623987470301e-01
-1.068479447409771861e-02 8.639131178657710741e-02 7.009433467491298364e-01
-2.278708794813627189e-02 1.440139380623118581e-01 7.157582243401954258e-01
-2.141594622222553826e-02 1.481467950750591789e-01 7.166433678400057072e-01
-2.181058872678404148e-02 1.760516269513269227e-01 6.673543458026389708e-01
1.235666079437422460e-02 1.059228864497061551e-01 7.022526508739717066e-01
1.946640008259736127e-02 1.569682733178027201e-01 7.247522662564217510e-01
-1.445853906142302581e-02 9.315165503313402318e-02 7.024466212080031635e-01
4.661753704329915649e-02 1.442244979513604419e-01 6.853846484374037651e-01
-3.829043867799601132e-03 1.289269695327478205e-01 7.201324517537260883e-01
-1.805642368394420536e-02 1.377013706463450504e-01 7.140463541300425820e-01
-2.709526962445038198e-02 1.072622308864956409e-01 7.011195322424524923e-01
-2.029644970767874659e-02 1.207881753335551533e-01 7.085987127306740962e-01
-2.942489991184675524e-02 1.113461303104229527e-01 7.011723508949327943e-01
2.404295909372296085e-03 9.736734468483877747e-02 7.058650019510963602e-01
2.339974181492391128e-02 1.258415200242702092e-01 7.085564993309985127e-01
-5.767575292338544476e-03 1.706589372272182548e-01 7.179111889090737941e-01
3.618908141144103197e-02 1.820506895541015302e-01 6.830530248737763932e-01
-7.503909368348051293e-03 1.125263799187453118e-01 7.087698342240851268e-01
7.333232957465085806e-03 1.484727360213254910e-01 7.258501342055189154e-01
-2.345199678382492436e-02 1.624604581339210707e-01 7.240528637738039563e-01
-1.653851419163499675e-02 1.950293746811733731e-01 6.777375741407201115e-01
1.013700786401948266e-02 1.348986640336956588e-01 6.241796233780443348e-01
-2.733548628602876923e-02 1.593125173606353417e-01 6.762150662416089864e-01
6.691727767958060603e-03 1.619149218089012965e-01 7.331584468357320583e-01
1.470380741651598940e-02 1.426407429181631714e-01 7.293199589022159035e-01
2.794437177107112272e-02 8.117512687152710071e-02 6.908741446400467057e-01
-1.560327713145285775e-02 1.115768851056323091e-01 6.996357129845408585e-01
4.192172718475940807e-02 1.343452221097369281e-01 6.755624682672562997e-01
4.545922351227611735e-02 1.230391447620546169e-01 6.490017840536728144e-01
-4.420096445492194444e-03 1.490302412508803243e-01 6.319666135100138193e-01
-2.755828723535750854e-02 1.487082503419216994e-01 6.450696172684271534e-01
-1.222493719884728061e-03 1.271592112266834995e-01 7.121118650356538238e-01
2.748282736513308830e-02 1.810177341629862768e-01 6.997551796571016558e-01
-8.035929168516572040e-04 1.871274440975437825e-01 6.608801363258615114e-01
-6.882762909426881626e-03 1.108263229235919439e-01 7.076642695935448923e-01
1.312250104431258654e-02 1.149718051976608146e-01 7.138253905366914731e-01
3.324685405604982380e-02 1.852261350802387185e-01 6.726983451484030985e-01
-1.199778988034481270e-02 1.167996259396979625e-01 7.100444289930546438e-01
-3.537131091618463813e-02 1.101717898606056206e-01 6.887251430672201025e-01
-6.973615548448481791e-03 1.405560210856052761e-01 7.218501769803020718e-01
-2.791429679857312246e-02 1.219793497528342263e-01 6.999531332100098480e-01
-1.145517083747066810e-02 1.314907162081318248e-01 6.151122657061875998e-01
1.126853096957121554e-02 1.118296282543115860e-01 7.104075714559253685e-01
3.034901000037166022e-02 1.857225852910852348e-01 6.857693109876538129e-01
-3.451581290154961956e-02 1.145107891591858190e-01 6.878895312615191937e-01
-6.652093058081032587e-03 1.679265915260594322e-01 7.100354986224857168e-01
-4.344875785520907474e-02 1.187242731603959933e-01 6.766074827408739001e-01
-2.116143118292761541e-02 1.171122740164566439e-01 7.052349647957107948e-01
7.865494101604565691e-03 1.010134727848024661e-01 7.087393979623847207e-01
-2.666491464471992465e-02 1.220023654485336007e-01 7.006675741736976271e-01
3.928347120694984651e-02 1.704383810808028643e-01 6.737405072043511911e-01
-3.720731911201688447e-02 1.605710969514250186e-01 6.720386532164647209e-01
2.817703454532591301e-02 1.918412058618244875e-01 6.760993414420196634e-01
3.564369793879642451e-02 1.644948387489863773e-01 6.512291047648522957e-01
-1.563433785569805570e-02 1.600091449196653914e-01 6.567248637956526469e-01
4.509969890034933038e-02 1.078457290785036771e-01 6.642485311820875982e-01
9.823714221435379465e-03 8.679580870342382126e-02 6.913642814463160091e-01
-4.480684480362138317e-02 1.161242954294219309e-01 6.723927208763229579e-01
4.417356845718666686e-02 1.047073267227798810e-01 6.819743803246173242e-01
-3.788870512574397248e-02 1.321405271673189719e-01 6.899133858029560251e-01
2.782694721922080935e-02 1.204854923020597102e-01 7.081522596686312676e-01
1.300408749402619420e-02 9.117185914134956493e-02 7.034614854227512204e-01
8.909684087461188645e-03 1.237303929643067818e-01 7.205618210528762502e-01
-3.826338188937370571e-02 1.519177004902908246e-01 6.776540875522603091e-01
2.192655388037028849e-02 1.120140105377346457e-01 7.050148132927336331e-01
3.802547625633114631e-02 1.383162094369107809e-01 7.107999906215392016e-01
-2.621278235683855568e-02 1.235331175259779535e-01 7.090051663183222219e-01
-2.318605811144584458e-02 1.834913603017470640e-01 6.902091799364838964e-01
4.009366397787139658e-02 1.287376990694988066e-01 6.491735302165577703e-01
-2.140341505748461631e-02 1.659771303974427736e-01 7.109922978048360820e-01
7.715387174855937655e-03 1.085891516630583670e-01 7.120079235740516266e-01
3.654494716613385791e-02 1.543288191766546413e-01 6.975714688747224335e-01
1.962837476451382776e-02 1.895976015776445756e-01 6.720564392131700426e-01
4.914685536944826683e-02 1.210047617814813403e-01 6.480985293980959794e-01
4.584809299336076172e-02 1.146547908094597140e-01 6.672652815137377624e-01
4.331807897462056078e-02 1.260669039671522551e-01 6.801886855412749844e-01
-4.181546049039786689e-02 1.116946996642483036e-01 6.831144416254413265e-01
1.355122722235767470e-02 1.302046535836286489e-01 7.168400076215721839e-01
8.515747989469264062e-03 1.603586819864788460e-01 6.395441724656092397e-01
-4.612017768454438477e-02 1.295602944643357846e-01 6.591477034995830708e-01
2.108928108486280220e-03 1.989538250762013238e-01 6.725922891511685320e-01
-3.513655924068342755e-03 1.068706824485905760e-01 7.056396302334032589e-01
-3.121668168347502964e-02 1.158804906273117746e-01 6.922157130473819420e-01
4.758737617022263874e-04 1.447710159095024485e-01 7.310850488221015686e-01
6.062281401368998894e-03 1.479958469515502695e-01 6.296100811847651357e-01
3.859878277302896538e-02 1.473810791179842594e-01 6.726416972615617551e-01
1.221969233885950717e-02 1.604747034913934223e-01 7.324214272752839205e-01
2.405686663890587579e-02 1.342337710079228585e-01 6.243360021192054798e-01
3.420238644935593569e-02 1.305511517766670404e-01 6.279359913208846233e-01
8.782059461727904220e-03 1.621143187904474925e-01 6.460852823808576062e-01
3.598277116974561013e-02 1.208932858337237876e-01 6.977683207155886969e-01
8.753762042561400586e-03 1.869997396455778671e-01 6.720402239450932180e-01
-4.040769041369970255e-02 1.314929734136413841e-01 6.688769978818448481e-01
-8.634144443284834033e-03 1.673375928846806970e-01 7.204913830241804762e-01
2.691212669471635885e-02 1.198405770037218321e-01 7.039971100986284203e-01
2.949333659876858874e-02 1.658981756886794279e-01 6.555089481851885669e-01
-2.811477125956782924e-02 1.203929799748695573e-01 7.019874815733382345e-01
2.115491546218152899e-02 1.797779215326813229e-01 6.966187482465036052e-01
9.423551251272824225e-03 1.719446892790607306e-01 6.462311378394759442e-01
3.984943912455318066e-02 1.716977988716301140e-01 6.924167328742051319e-01
4.866348096822893654e-02 1.108492701744814846e-01 6.481993421123306565e-01
3.443670569546950638e-02 8.751157962148953251e-02 6.869245843488093195e-01
4.694707850477972122e-02 1.314875131861436564e-01 6.834288389905732730e-01
-3.228104263997270962e-02 1.743014586641229990e-01 6.805375710138333867e-01
4.433258507873300003e-02 1.046213495603799670e-01 6.837664173140044488e-01
2.091118502676041907e-02 1.650744938484383639e-01 6.454688685327548692e-01
3.726508957144068074e-02 1.276816944618740790e-01 6.317930752561281560e-01
-2.042803990755514415e-02 1.770937478187929737e-01 6.952230251193000088e-01
-3.044583784194392767e-02 1.294200109538678478e-01 7.048352374523643160e-01
-4.587204542492136390e-03 1.854143330514239074e-01 7.005657616751729266e-01
-1.087195024417253811e-02 1.599715375587082711e-01 7.204591676253189192e-01
-5.844371758439277642e-03 1.533577028145309828e-01 6.326722235718711396e-01
1.407282813865701199e-02 1.074828928337031864e-01 7.085972033258619573e-01
-2.317643500962227737e-02 1.150113948219941978e-01 7.040628013050063139e-01
-1.484567793969900074e-02 1.771388049591666181e-01 7.123601484671242545e-01
-1.111352067896826876e-02 1.124165383661256401e-01 7.098414422853256411e-01
2.090673977469723402e-02 1.840752580199428723e-01 6.915482352851346493e-01
-9.560988707778895687e-03 1.438116950385785464e-01 6.260842754186469739e-01
4.464053101177742344e-02 1.535692398122500690e-01 6.844374631227928552e-01
3.434054531116002840e-02 1.450924087668508944e-01 6.478133926395940323e-01
-1.120602712513238571e-02 1.352441781585436154e-01 7.216950299747082465e-01
3.106243008378284029e-02 1.713443794450062452e-01 7.172666941117880057e-01
2.901568576084270421e-02 1.769955004723866299e-01 6.619238611671678374e-01
-1.909637005573152149e-02 1.133206745694373685e-01 7.059805538136663117e-01
-1.344141302146770883e-02 1.446395403487014675e-01 6.284302380929052134e-01
3.369098639296932984e-02 1.405567653393056116e-01 7.184448147889267444e-01
4.501069615520993106e-02 1.460148083024211119e-01 6.763590146638557288e-01
-2.547506690289104425e-02 1.878128704805185067e-01 6.853206911673461743e-01
3.664914212912172981e-02 1.653276223422860125e-01 6.851751703708283125e-01
1.928775734723579480e-02 1.554520256514364818e-01 6.403799471847406721e-01
-3.990151956600331701e-02 1.218596356403995884e-01 6.876618078688373492e-01
-2.697933874522028333e-02 1.297514045813158989e-01 7.033280235559025151e-01
6.327206996219940892e-03 7.519365113079068408e-02 6.936513209266286228e-01
2.669139069546635004e-02 1.180619824690631592e-01 7.089420722499053529e-01
-2.633604927722052458e-02 1.294569560306506606e-01 7.083896579300882346e-01
-4.854228577828248285e-03 1.656541672193538040e-01 7.302251069715907095e-01
2.062217394434448514e-02 1.663102863801485254e-01 7.152196812987453578e-01
-1.097358378778082351e-03 1.276541924508629577e-01 7.169165495991506321e-01
8.653792913726860228e-03 9.126304162202350523e-02 7.014661552685597101e-01
-2.136347147994247658e-02 1.296193356603121682e-01 7.102511640515122293e-01
3.622308111054905327e-02 9.634343377043405598e-02 6.807288577833261467e-01
-2.913526315666169902e-03 1.916395223466736963e-01 6.682728328320138855e-01
-2.242120999799456990e-02 1.510556907056807563e-01 7.108468630158445434e-01
-6.614520095549218312e-03 1.618442731889652708e-01 6.428558158007908752e-01
1.413229948624986076e-02 1.600343275650695785e-01 7.315346124174101350e-01
-2.113496859894732974e-02 1.006291427327930255e-01 6.978127465242416338e-01
-8.358924202333861686e-03 1.230686095102864475e-01 7.161944267580560020e-01
2.748239236422606382e-02 1.287036303272096893e-01 6.206613553245019510e-01
-3.776419113033989416e-02 1.193173507671929506e-01 6.916881101810614663e-01
-6.465876168166333898e-03 1.019847225521713779e-01 7.056160710396026658e-01
1.134397507747612280e-03 9.668442498091214810e-02 7.003443553915441600e-01
-7.877611156382182886e-03 9.020055971900076131e-02 7.008297787920744204e-01
3.945226455122508025e-02 1.308715237092940853e-01 6.445195365218803207e-01
2.663292503833187760e-02 1.557725827379548844e-01 6.653344145543305110e-01
-4.011178275155927869e-02 1.326711528253343708e-01 6.338804614876633048e-01
-8.901835091225595090e-03 1.134520015591715808e-01 7.091023205850026656e-01
2.006352282746419469e-02 1.879630366809135478e-01 6.614831648045038648e-01
3.745824670179122295e-02 1.181589854043518240e-01 6.520299478166303730e-01
4.499055708160316913e-03 1.688790687768901289e-01 6.461003646659242428e-01
2.996290462874579789e-03 1.653481745442766659e-01 6.454915993769581029e-01
-1.490557699023047772e-02 1.615677641718150648e-01 7.259361256189879041e-01
-8.810258438614297291e-03 1.186826993825346455e-01 7.129609667979457388e-01
3.125012649860075403e-02 1.240960703935372472e-01 7.094843626471820652e-01
-3.339477326974180788e-02 1.106844564415816745e-01 6.964100121788976416e-01
2.427906308155534931e-02 1.100775878318274309e-01 6.962988574111614870e-01
1.533488635707320157e-02 1.450479576678268545e-01 6.318258193141170764e-01
-7.421925260102317512e-03 1.088829133717110487e-01 7.089016319656643583e-01
2.844008067229559372e-02 1.482402323184132120e-01 7.237968505874435854e-01
1.096962725839262069e-02 1.942025712817094241e-01 6.781799066721115876e-01
-9.891148115606670718e-03 1.150801954235861346e-01 7.130332340773997135e-01
-5.894267880460782316e-03 1.107164568433721547e-01 7.116062758158409052e-01
9.376183117444283205e-04 1.377530240980531506e-01 6.222155465635268445e-01
1.240849728888164354e-02 1.061121102746696021e-01 7.059520476980454262e-01
2.866544803065640412e-02 1.487323786979612983e-01 6.438665376096178727e-01
-3.097925178132526595e-03 1.562982721047651291e-01 6.389909911062882086e-01
-1.095250239818492538e-02 1.132022521305798696e-01 7.110690478960193239e-01
1.036103674456691215e-02 1.461197993756548075e-01 6.324155162941079711e-01
-7.410901571590355896e-03 1.007564098852658935e-01 7.050199654877861155e-01
-2.672570972491113833e-02 1.458551962439990912e-01 6.525279160333493644e-01
3.885582225870909054e-03 1.090443788840307904e-01 7.094495992421231412e-01
5.921891272617466236e-03 1.058647674233027108e-01 7.043403413794273593e-01
1.700036884256736491e-02 1.448515182025471582e-01 6.319198950112482338e-01
-1.608239712193381549e-02 1.269658914584252674e-01 7.173264281331979131e-01
-2.275547970172368470e-02 1.844571974372541390e-01 6.752432995360818646e-01
-3.155363460856378671e-02 1.738297614186823936e-01 6.897690100204942887e-01
3.937184015231756651e-02 1.282048587177064547e-01 6.350403758350965377e-01
-2.175950506334683662e-03 1.696909032438092269e-01 6.440086675226454060e-01
-1.654169175160304442e-02 1.771842552007730498e-01 6.651720620097612002e-01
-5.575844048325340196e-03 1.126877762801389293e-01 7.113769250994512738e-01
-2.968025243384694173e-02 1.792661628422160536e-01 7.010600419811395811e-01
-2.350997723124198177e-03 1.036518592514636128e-01 7.083779022798304403e-01
8.899275141186603968e-03 1.882961851281760857e-01 6.603124540453716440e-01
-2.336186004864001381e-02 1.248718628061832869e-01 7.059356676868469016e-01
1.190229076035300392e-02 1.509490185410800323e-01 6.304309753947641148e-01
3.381455265681758415e-02 1.210407878166683687e-01 6.942402343168833090e-01
-1.292036537221728440e-02 1.228727187124005055e-01 7.119226616850823364e-01
-1.039643759657631582e-02 1.852299684306592809e-01 6.625451229400153297e-01
-3.210236153537840420e-02 1.235492082932423269e-01 7.022418461686376068e-01
-2.563525457700949195e-02 1.451589569657770751e-01 7.093367021212175771e-01
-2.647992239556954536e-02 1.532247271088199581e-01 7.120382884465319417e-01
-3.161345910540258597e-02 1.248559781905349830e-01 6.997230242662104693e-01
-3.262172617679318792e-02 1.244052511619923307e-01 6.891715259797275284e-01
2.122073681903112463e-03 1.241545264872102039e-01 7.171532414669021804e-01
-3.722573390674393731e-03 9.024933636037951734e-02 7.030904633693711991e-01
1.533890521616610748e-02 1.687194140013634769e-01 7.095163578418258732e-01
3.272721673112316543e-02 1.340592285327532607e-01 6.341939747666096583e-01
2.598081003226401786e-02 1.238127880227047201e-01 7.078030346371296799e-01
-7.513900349805367404e-03 1.608735640919627952e-01 7.252523911360604369e-01
2.362289576895232682e-02 1.634258234336101456e-01 7.260295501369640192e-01
-6.772128713014012938e-03 9.822917262053598719e-02 7.055978926932158224e-01
-9.664382831746096483e-03 1.017301056185466318e-01 7.045129654936947983e-01
-2.584160343127120396e-02 1.211356024984938662e-01 7.027043330917347452e-01
-4.024380585239208108e-02 1.005500440167711174e-01 6.767571765147437635e-01
-2.877598551128575724e-02 1.005686892509183028e-01 6.934184475791936864e-01
-8.479063581821606743e-03 1.119986042949805138e-01 7.096456158217617771e-01
-2.711748983510192668e-02 1.297547431104155713e-01 7.067552281269868786e-01
2.245747826419603604e-02 1.362220671627882851e-01 6.318422341044671597e-01
3.316220020988640271e-02 1.872248209963224552e-01 6.926648962037211810e-01
-2.754326885402182817e-02 1.668410522100021998e-01 6.677566750410891538e-01
4.117924650461216723e-02 1.652191741247008017e-01 6.704414284864493867e-01
3.109776981794388703e-02 1.163978182611018486e-01 7.049046335639452820e-01
3.579816780575850038e-02 9.974680663655718926e-02 6.941558426193212838e-01
-2.382298933846412753e-02 9.602396579966214485e-02 6.975896697111161338e-01
-1.800856730025400532e-02 1.566768402479758460e-01 7.157108302591286275e-01
-1.743284401230577735e-02 1.334754122402178056e-01 7.143209650442229330e-01
-7.627522867020015973e-03 1.486787476944708419e-01 6.276836210086005341e-01
3.332525769629052226e-02 1.012682388111724729e-01 6.916439049312400611e-01
3.897864205372348484e-02 1.509287091040175388e-01 6.506868602270805546e-01
-2.153678354747969384e-02 1.251894247755984957e-01 7.079170419568040495e-01
5.922172309951993785e-02 1.734060575846480268e-01 6.372046252128268362e-01
3.638916076971238089e-02 1.548000790211364053e-01 6.590922355205882655e-01
3.583680617016402753e-02 1.305151122917233564e-01 6.306912649448488395e-01
3.909316401930868629e-02 1.167493746849171399e-01 6.966929641495526182e-01
-5.536219712286166023e-03 1.251927178179533529e-01 7.161446761032271846e-01
-2.147406788409689932e-02 1.677077603609351819e-01 7.235798683741559989e-01
4.244594994529899551e-02 1.277866123117047670e-01 6.978430587932722418e-01
-9.099325497556433676e-03 1.122337517825796882e-01 7.103756850652004351e-01
-4.246888506268368252e-02 1.456174845250638450e-01 6.778932283375674883e-01
3.523625037847299274e-02 1.149143638080667440e-01 7.023278933252047329e-01
-4.303531288570929675e-02 1.183937657972890523e-01 6.841441698257125781e-01
2.546425708598280824e-02 7.814250154125845782e-02 6.849102984311130626e-01
-4.037774297704121995e-02 1.389462594404716478e-01 6.773854202371261124e-01
-8.339436162871522243e-03 1.043172164837775084e-01 7.063110206775067290e-01
5.945883298278588792e-04 1.522317768322020148e-01 7.324029939020796354e-01
4.606931820857170304e-03 1.117004738303689765e-01 7.113525782825707022e-01
4.558049817989285463e-02 1.396165184640721091e-01 6.856791767992529429e-01
-7.665743331609444801e-04 1.118652032721799833e-01 7.120636151671774217e-01
6.839139694472009569e-03 1.989069444255147923e-01 6.709671511245925979e-01
1.268349135039641661e-02 9.793074827085719580e-02 6.984141238128032114e-01
1.618870199474593125e-02 1.606251369140076768e-01 7.280970894322845721e-01
-2.662498325784649900e-02 9.042181503410745558e-02 6.949682775305210392e-01
-1.430283081964823719e-02 1.306565362397853758e-01 7.122404438055761622e-01
-3.649540614491859902e-02 1.255746955998759129e-01 6.966947687361012553e-01
3.193406283279297264e-02 1.200008664524293001e-01 6.263942829165797255e-01
-2.355762456141578462e-02 1.375907356850553098e-01 7.106947808918678833e-01
1.214250268494474969e-02 8.053078114569711676e-02 6.943329343755739735e-01
1.913509809902729604e-03 1.755959369008547877e-01 7.157961966681857247e-01
-4.123361635031837918e-02 1.383207729457938406e-01 6.529634745199601742e-01
-7.274139260036061039e-03 1.968698228352955826e-01 6.790875522388781782e-01
9.523662333532509350e-03 1.701264101028930331e-01 7.096444375391913750e-01
-1.754104701451648929e-02 1.682572119511152875e-01 6.577410607251731323e-01
2.621497711348191526e-02 9.939682989313601558e-02 6.918612010425511105e-01
7.158368711781896467e-03 1.608201698287831938e-01 7.278477901144049245e-01
-3.412360946074231155e-02 1.355236223253552530e-01 6.949183952696957878e-01
-4.017121684476745481e-03 1.128049478988417537e-01 7.101884956803986571e-01
3.877844477608196477e-02 1.237025457849901255e-01 6.352095592227362530e-01
-8.803833649805418299e-03 1.121336133450890060e-01 7.086631617340266587e-01
-1.965416435610724266e-02 1.177225377212044038e-01 7.062414319080108083e-01
1.167446121383120330e-02 1.384160778853001927e-01 7.217024536226450682e-01
-1.370031361174074008e-02 1.859708442625880032e-01 6.801352837329670553e-01
1.716413381547293032e-02 1.565154678454609982e-01 6.396789263482063337e-01
2.265897012656051257e-02 1.403940831942921685e-01 7.171632753250855030e-01
3.713496305417634397e-02 1.651528931395535582e-01 7.121812533506884924e-01
3.555474425102882197e-02 1.365239100493856883e-01 6.374129941497489460e-01
1.009641220018925312e-02 1.683352857518955470e-01 6.462162221164124976e-01
4.562106867705660596e-02 1.249874405232725000e-01 6.729701958555771579e-01
1.725400107964963556e-03 9.928302950750324263e-02 7.039756791694974369e-01
-4.352099983551328821e-03 1.084246718467601345e-01 7.096540195817014895e-01
3.315925972363808344e-02 1.302000665763573539e-01 6.287102409577228768e-01
1.170291654547660730e-02 1.211141598675115894e-01 7.147478457087222958e-01
5.469684874649681505e-03 1.794125580100973394e-01 6.576453927441220371e-01
-1.575178583663097709e-02 1.470702751229152339e-01 6.279695618040380678e-01
-2.855747206135315561e-02 1.082352832684917443e-01 6.991479873605569439e-01
-1.911822214310493137e-02 1.195245002852757255e-01 7.113180125231061135e-01
6.345126867691611161e-02 1.649480446268102307e-01 6.282486058303147214e-01
9.005591371820467067e-03 9.656881528096028511e-02 7.050944135763056453e-01
3.627516216672199700e-02 1.582278905009913694e-01 6.684719010466813049e-01
4.246843277605633765e-02 1.250297721588085054e-01 6.311443721680091157e-01
-1.881288811281013953e-02 1.403930210707963755e-01 7.173401836399231346e-01
-1.591243871629734533e-02 1.730323650972973026e-01 7.175841437067446149e-01
-2.748745432686211521e-02 1.368335845933533190e-01 6.320532465083856799e-01
-1.797615222179324568e-02 1.673543102698513141e-01 7.176667201004259811e-01
-1.223720200583824566e-02 1.961310174788692406e-01 6.820756468040809484e-01
-1.834982021918302869e-02 1.241884220989368653e-01 7.097168255191661501e-01
-1.610098776402474688e-02 1.061431114792164843e-01 7.020493967773326904e-01
-1.133132008009092757e-03 1.866103287268396915e-01 6.858876000825248065e-01
-3.015890729761384892e-02 1.627365507371848763e-01 7.136707666819226414e-01
2.685040574795916762e-02 1.286356096130513993e-01 7.066685306293263302e-01
3.861392161420531405e-02 1.239172009087112225e-01 6.526399811549840058e-01
4.356601390401022150e-02 9.249642328843213357e-02 6.729734362394984570e-01
5.835234971450639022e-04 1.011994331594062019e-01 6.989538821291516602e-01
-2.302090643713190429e-02 9.302600764591610616e-02 6.986206125687499657e-01
-2.791282485200891061e-02 1.870988824145004281e-01 6.902948447910456364e-01
-1.533216103322353543e-02 1.086665062966845341e-01 7.056061118470049465e-01
4.437600514727848416e-02 1.620861641298302069e-01 6.817397428180467234e-01
1.984846234672428544e-02 1.822811447605450774e-01 6.752967386845659670e-01
-1.129300256523339124e-02 1.452313656604436731e-01 7.228344897265245317e-01
-2.642354628543560138e-02 1.301914572435971251e-01 6.222929258007157127e-01
4.138859649916044187e-02 1.377909080790081509e-01 6.433794404996560079e-01
3.340739166937353732e-02 9.454494133156543523e-02 6.933929202890549703e-01
-3.193262411774418913e-02 1.606474519527095746e-01 6.648154614272759888e-01
2.601871226478324681e-02 1.358185878367911548e-01 6.314038596136437587e-01
1.066483355909556008e-02 1.728620949203144574e-01 6.587131101436771718e-01
4.482456162728253035e-02 1.776094619455572399e-01 6.626297726068668403e-01
2.345742316907222999e-02 9.988985194940157297e-02 7.011095647942288123e-01
-2.833977906025102189e-02 1.735469583286185224e-01 6.742905501528598800e-01
-2.840564890130919951e-02 1.603866884951893612e-01 6.703042800792056166e-01
8.269527844534198258e-03 1.552414426561664340e-01 7.329827187512528708e-01
-1.230947526099617807e-02 1.208758977143691848e-01 7.092811318746503613e-01
7.380152097777581237e-03 1.291867705045220138e-01 7.134543821667029828e-01
8.852213449085207658e-03 1.313135598478175903e-01 7.231537989795603361e-01
1.334069914163627142e-02 1.059167918322388019e-01 7.049374855316954402e-01
2.529911284526921086e-02 1.529705323504224612e-01 6.370504744025516919e-01
3.482404630731493651e-03 1.906961776479197401e-01 6.734229733173563437e-01
2.373428441742984896e-02 1.870091431268746662e-01 6.971752492808634960e-01
4.535608529092651636e-02 1.651029309628168906e-01 6.854446874754523966e-01
3.299581605424169173e-02 1.074454495707873741e-01 6.973302912483619886e-01
-3.422571908513583755e-02 9.121774340049389196e-02 6.885941330647107339e-01
4.464044044124604316e-02 1.666389579668958454e-01 7.080442827092661151e-01
-4.515878295444719637e-02 1.329989726498286839e-01 6.614582334468300795e-01
3.086115930501916876e-02 1.386181644274724623e-01 6.354084479871032753e-01
-2.463643441039596073e-03 9.259328835791993950e-02 6.994457629699946111e-01
2.914547870790214212e-02 1.518923321066471266e-01 7.156536733381614335e-01
4.580457437666510256e-02 1.256971995598628045e-01 6.431722438850265844e-01
3.931183727528025917e-02 1.489481678911404872e-01 6.607180682335974664e-01
-5.345263557289313058e-03 1.797449208921769737e-01 6.962996595384203236e-01
-3.954135964494266686e-03 1.702832809944279102e-01 7.168942675860325853e-01
4.376894145171249251e-02 1.410358998849021994e-01 6.878006487807162284e-01
-1.868607471599945460e-02 9.199137952135076624e-02 6.993408427514880010e-01
7.729264476146593087e-03 1.330905894819162105e-01 7.189909590462660871e-01
5.553786991183299292e-03 1.364536914242903687e-01 6.303790270951450392e-01
-3.507992559379399800e-02 1.377762914341976452e-01 6.887567257844926516e-01
2.479926751507297369e-02 1.498441234383298681e-01 6.447319497206051020e-01
8.143633667905022036e-03 1.106679940322253808e-01 7.080359311899756536e-01
4.412067878311948244e-02 9.281120783709137512e-02 6.627954504203646957e-01
-2.202465386860951932e-02 1.179513217141070214e-01 7.060654872683164163e-01
-1.981846442162757058e-02 9.004917905578668780e-02 6.973739744086375758e-01
-7.420824957529260218e-03 1.702883941187282035e-01 6.492852683548516746e-01
-2.385279948794353372e-02 1.091189037468490858e-01 7.062997291524206744e-01
-3.719006612707806414e-02 1.149246476279752460e-01 6.927249323807034287e-01
3.887613187529295050e-02 1.176406569366608285e-01 6.853024002509909840e-01
2.295384754961505083e-02 1.340878284719577429e-01 7.096541311202346769e-01
3.836053462989907903e-02 1.751837999816500124e-01 6.956205949443778902e-01
-1.848538763034458798e-02 1.824682518600005965e-01 6.640547824353444373e-01
-1.387390542104815529e-03 1.207677986106660550e-01 7.089740591447030171e-01
-1.550797995503482712e-02 1.062222195959917348e-01 7.054045571015640226e-01
-3.345585138543905740e-02 1.225674214780103077e-01 6.969584220358786553e-01
4.493146169751568303e-02 1.606442237357811609e-01 6.746916411514065626e-01
4.061428899620275063e-02 9.190713444109466224e-02 6.788693595585502116e-01
-3.614169479315087335e-02 1.283423228730375398e-01 6.933099268130814563e-01
-1.146101907724058656e-02 1.103920640494084060e-01 7.082832998989617712e-01
4.479201975306700001e-02 1.465532117553859370e-01 6.814495997409821815e-01
-1.469475125437806617e-02 1.217546237541575760e-01 7.139353195484005044e-01
-1.974314005908151155e-03 1.647024884338376682e-01 7.172051857570853617e-01
-3.397981966341663551e-02 1.098848015368148190e-01 6.962921006888999065e-01
-1.569259367481570279e-03 1.036304715527615050e-01 7.040808027885562259e-01
4.252589799380339375e-02 1.641986309196925287e-01 7.072435713636282539e-01
-4.655060852501310964e-02 1.224232499251631245e-01 6.580037215520656568e-01
-1.424280425675941014e-02 1.838908244950150928e-01 6.698655884441748753e-01
-1.950367858490941950e-02 1.615957224210199938e-01 7.246765064133938727e-01
9.024960902130611806e-03 1.909857710020238242e-01 6.858887246642476621e-01
2.747444636569252967e-03 1.900609031547118299e-01 6.830200149142102717e-01
2.285789598714884838e-02 1.432043935184861283e-01 7.244663616931678041e-01
4.073024935881019992e-02 1.458367495042149353e-01 6.651596108846429267e-01
3.356857054137250135e-02 1.207723361673530837e-01 7.033133802570420423e-01
-3.660566707217666887e-02 1.054771690658821565e-01 6.867314907075552366e-01
4.804339169423738759e-02 1.356641123317184339e-01 6.841103561484628282e-01
-2.453356389691670192e-02 1.582258354933758493e-01 6.557754322540505498e-01
-1.711500909332300258e-02 1.098059872439788309e-01 7.048076366613043042e-01
4.261674302836830630e-02 1.442309412246404188e-01 6.753994109309283678e-01
-3.995716795931603116e-02 9.033536265997299530e-02 6.844206454170078668e-01
-3.909553118920939402e-02 1.112095119510602276e-01 6.884159097990362186e-01
-2.037561905107747665e-02 8.183166441791919765e-02 6.933719684301367092e-01
4.301205933053206532e-02 1.069224846942589680e-01 6.754810603692000814e-01
7.077570272865909597e-03 1.136944522326910206e-01 7.122647210116244132e-01
-8.413429692396929768e-03 1.038768818300107033e-01 7.059240386629589414e-01
4.095102494942633869e-02 1.335967332119420425e-01 6.836423420165063103e-01
-4.184431240793665824e-02 1.226881532465288333e-01 6.771462990052738995e-01
3.691441478523868613e-02 1.561641622337587021e-01 6.588356664303911536e-01
-3.428706799745643435e-02 1.149698910048310152e-01 6.965664229422081632e-01
-1.506205060821381309e-02 1.319006321670897763e-01 6.289454283549293923e-01
-8.634188993492928656e-04 1.636614764593413984e-01 6.408425505843429182e-01
1.219395637072897588e-02 1.391573367381728488e-01 6.202055197762779137e-01
5.504509749901820292e-02 1.590642265210472361e-01 6.316088400763719690e-01
-3.130772952090898203e-02 1.807077894595143230e-01 6.921872320328564809e-01
3.494275815700790405e-02 1.314815986514940305e-01 6.369607317327234952e-01
4.551824501325398703e-02 1.595028340433273240e-01 7.036899858593643753e-01
2.816972019298560198e-02 1.404499327149071886e-01 6.358580522044114947e-01
-2.158005417342366561e-02 1.632028388215579495e-01 7.188961337606010193e-01
2.242448104121989166e-02 9.166513426583933200e-02 6.979034634203125087e-01
2.667113923411463736e-02 1.031917470097179212e-01 6.958091579937570881e-01
2.283177334209319023e-02 1.667356973099929085e-01 6.465727182987146548e-01
4.136174800026702625e-02 1.214354988682519454e-01 6.682939831208778436e-01
2.751349353754725668e-02 1.419311516922935057e-01 6.360434965224610604e-01
-2.518791053528902577e-02 1.222760473561505523e-01 7.026052843552755833e-01
-1.404007012512320865e-02 1.157120940847253532e-01 7.086954100514706312e-01
4.622895898477497739e-02 1.107125248885842406e-01 6.816962512263601282e-01
1.095224083250512410e-02 1.487753750384903928e-01 6.268531563732019363e-01
-3.637872748322552863e-02 1.228861343378467308e-01 6.955133306313637798e-01
-7.950031593658606413e-05 1.456212204332634763e-01 6.281985088613178947e-01
-2.471774318422433753e-03 1.506159137301519291e-01 6.318520719173414957e-01
-1.982234372582164506e-02 1.867400769617834078e-01 6.993136994430338982e-01
1.533510077434256311e-02 1.454654804088042486e-01 6.261216050765840979e-01
-1.399587640006288991e-02 1.161017223949694782e-01 7.093361940315302538e-01
-4.670032140005808338e-03 1.076876214321894343e-01 7.100555347196658706e-01
-2.548640307172647668e-02 1.194461226532647635e-01 7.048394179787685898e-01
4.053462904918733040e-02 1.703090679523192041e-01 6.870007738665780961e-01
4.587390535050835105e-02 1.516464400954942449e-01 6.775064455096287963e-01
3.230222518977395041e-02 8.656586126908759338e-02 6.732918493591160125e-01
2.340026405779599070e-02 8.593627405571604982e-02 6.840688274933800495e-01
4.556528757993043993e-02 1.508875351158076861e-01 7.010253027513444479e-01
2.060986621655793230e-02 1.639708674561679569e-01 7.198795227726380030e-01
-2.642774719236736652e-03 1.093278116115770360e-01 7.106192979227240469e-01
4.854101816231417427e-02 1.055632675040285851e-01 6.466218329814301669e-01
-1.245618965256909717e-02 1.512724082034417883e-01 7.251190994199777640e-01
1.607690945652588688e-02 1.085974537048838007e-01 7.050637740865808301e-01
-2.971193957626731136e-02 1.201600789474533415e-01 6.993928372420130657e-01
-2.597857084342563433e-02 1.205123256431326062e-01 7.039626500887666838e-01
3.809437905971596941e-03 1.406769661892698087e-01 7.206149895720208587e-01
-6.507910238327219501e-03 1.028215315311402367e-01 7.068660138848257279e-01
-1.938599910118964445e-02 1.237220872271078964e-01 7.084894150063877349e-01
-2.943569220560512262e-02 1.038398720882907356e-01 6.985412635477243892e-01
-3.150579862790404279e-02 1.451559441625839553e-01 6.438919655450946467e-01
3.315202901363119292e-02 1.594848861671233353e-01 7.242303193040565690e-01
2.918881244589019083e-02 1.452932932600294047e-01 7.116880219909975658e-01
-1.488648693864816352e-02 1.743782151877844022e-01 6.622292796477584620e-01
-1.624914096728083054e-02 8.968437053711025841e-02 7.005729873358025328e-01
3.223845255898367956e-02 1.161487964202101569e-01 6.874372458759507865e-01
4.116625386213347559e-02 1.562917292139629211e-01 7.037565400766604418e-01
5.844340540831199221e-05 1.239504368157807873e-01 7.189346700198779860e-01
-3.494666543380709790e-03 1.076307306950303744e-01 7.125234851343213993e-01
4.373659797199155874e-02 1.201154933581609907e-01 6.627505142445704323e-01
4.295113031207715287e-02 1.271305850946193861e-01 6.582475153251886590e-01
-4.088089551528987370e-02 1.068152438608096361e-01 6.858884730678330710e-01
2.144619749348089174e-02 9.811293552897956682e-02 7.015627079039866709e-01
-1.571864853995099537e-02 1.636252900902891438e-01 7.232797621790278964e-01
-2.711045411459324372e-02 1.174793963563310617e-01 7.021772218574938718e-01
3.529954293228498852e-02 1.881714389797601861e-01 6.849162962792648690e-01
4.105097635996173000e-02 1.149563632057127582e-01 6.707319133354624485e-01
1.708421958673032523e-02 1.949272091263183349e-01 6.828545865475548204e-01
-1.863084397793245139e-02 1.127513000141891208e-01 7.053747342441505364e-01
-1.494120664926730513e-02 1.666041297544028355e-01 6.525317087478049727e-01
-1.842790638629313374e-02 1.666742962099613812e-01 7.228472984905471854e-01
1.327792850549524249e-02 1.416553671938614867e-01 6.257006167928799156e-01
2.218912927045114947e-02 1.867974071226299326e-01 6.821295486232880068e-01
4.095807686139468079e-02 1.321433664606860292e-01 6.538667004937048777e-01
-1.196770951555133425e-02 1.087911759168791181e-01 7.067400818734288492e-01
-3.923247019362180628e-03 1.082369216654729960e-01 7.092297097298569941e-01
-1.290658082328503126e-02 1.190673386475438328e-01 7.115506352647726906e-01
-1.437913832144451301e-02 1.741658656478203004e-01 7.096642237035862832e-01
-1.949269846334966347e-02 1.804677727253571340e-01 7.065963359911322517e-01
1.041260264607508923e-02 1.736113111983650092e-01 7.167664499701621450e-01
3.001065211267543026e-02 8.741617589647439346e-02 6.906664362961376646e-01
8.715018682424389290e-03 1.616007485973207092e-01 7.200163468174969328e-01
-9.443012148933381880e-03 1.611014137818539693e-01 7.238164304520245951e-01
5.532347584803072593e-02 1.478209300093881740e-01 6.301588015394615772e-01
2.327244888897920735e-02 1.793321074686032301e-01 6.651682461246259948e-01
-2.498193521420206953e-02 1.114589896910409828e-01 7.041978884439000774e-01
-2.458775624324201908e-02 1.557071554531153090e-01 6.478965680294838103e-01
3.032897476328645300e-02 1.003606824649062729e-01 6.979561897789492431e-01
-1.461437218145254097e-02 1.030582972744740061e-01 7.031571608756012060e-01
1.167309646736481698e-03 1.649127163537960072e-01 7.227149269591465197e-01
3.334324428859987421e-02 1.105502176423995564e-01 6.981720104103857905e-01
-2.251552985097390186e-02 1.391480947221244713e-01 7.151469808691943708e-01
3.727815603858790350e-02 1.673991531123338594e-01 7.120357902670594319e-01
2.600560344035041105e-02 1.259667306024790934e-01 6.209844782116636930e-01
2.340367445208355046e-02 1.270498373412582149e-01 6.189623646731824413e-01
-9.699628286091787482e-03 1.551597623016304217e-01 7.299693909490525545e-01
-1.566384063940017696e-02 1.150309386519342558e-01 7.073375857486434715e-01
2.111092643412897790e-02 1.472077079252804843e-01 6.306024530598848266e-01
4.886036458955556050e-02 1.404249957789986958e-01 6.857917318683076635e-01
3.835912737887210711e-02 1.033792198023941733e-01 6.937091185947916738e-01
1.417233369712064470e-02 1.477014805984150081e-01 6.350073261251411028e-01
1.680644923965531057e-02 1.139836566748589630e-01 7.089429435022969184e-01
3.440000698677174451e-02 1.284651393583413626e-01 6.328533725495949502e-01
4.062136852143937576e-02 1.365218348752471611e-01 6.894497476676616499e-01
1.231653629214794765e-02 1.661618825359297835e-01 7.208513567058613125e-01
-4.731936541489009662e-02 1.028614892718617141e-01 6.672190528691688272e-01
-1.996697911857430938e-02 1.918249126461102905e-01 6.780536713002525140e-01
-2.972524868831221551e-02 1.113491474698544426e-01 6.986015809359837903e-01
8.775846817412311790e-03 1.100519727111551466e-01 7.108743958683912956e-01
-1.060975617089399657e-02 1.096546609987105320e-01 7.083991302951662128e-01
-4.052228958467886388e-03 1.390546102923859439e-01 6.212050308632612872e-01
4.796421238596308700e-02 1.265432770968862586e-01 6.522002487651340497e-01
-1.050345165141796863e-02 1.560946293223794412e-01 7.286839264276930850e-01
-1.161784837355843251e-02 1.645200500002110544e-01 7.277055125313948158e-01
-1.441910481372713979e-02 1.090801159005725524e-01 7.076456654633808130e-01
4.286360697508297124e-02 1.671644386923942793e-01 6.793658602722761897e-01
-4.570838536422162576e-03 1.425053292705848462e-01 7.164936076799417464e-01
-4.660166331931949596e-02 9.915916500950279489e-02 6.727276284047629673e-01
-5.206688598338623554e-03 1.661815738453213398e-01 7.240429042287034322e-01
2.671688714541320744e-02 1.590324212230695422e-01 7.241429026091478205e-01
2.757360828791132010e-03 1.852146311815714708e-01 6.905776085643279272e-01
-3.935084939035635859e-03 1.448302216042738622e-01 6.238664389436702207e-01
2.145287161818197966e-02 1.306581460201016731e-01 6.194321424834476897e-01
-4.354028695090820210e-03 1.139478008385083202e-01 7.118342398062970089e-01
-1.622639756857425196e-03 1.166554300960397500e-01 7.159171573774935071e-01
-1.143799292417260575e-04 1.596612326967289108e-01 7.332765408078499858e-01
1.685489586544517207e-02 9.478372292927544907e-02 6.974096377160216020e-01
-2.248997417482764480e-02 8.241966559289820582e-02 6.901050744619360300e-01
3.785860690005995316e-03 1.020527090994208519e-01 7.092427995075869518e-01
-2.228071504123488658e-02 1.744357458359661606e-01 7.045440762511651078e-01
-2.426882370475276149e-02 1.216124159129188947e-01 7.062003149401041568e-01
-3.710060497684646019e-02 1.301201425553675239e-01 6.812296235551382750e-01
-5.087765334382870520e-03 1.099932052197993004e-01 7.080663041219328324e-01
-1.521789929446340853e-02 1.228177696884343029e-01 7.107403828366916088e-01
3.999113161393721277e-02 1.491213383494641720e-01 7.132186493200595168e-01
2.262843767276573673e-02 1.036717781346890993e-01 7.025264147641501200e-01
4.216839676622512190e-02 1.074505411779907715e-01 6.898395890249706675e-01
-5.152449768240727028e-03 8.908303606754722215e-02 7.012615312974491699e-01
3.451267371599946870e-02 8.307426856410929372e-02 6.796722447450382898e-01
-1.359147366144919378e-02 1.144098276009987980e-01 7.088388128326872373e-01
4.126100364041599550e-02 1.358224564852348881e-01 6.906829320361649316e-01
1.948376422964280714e-03 1.214481026696881544e-01 7.187043413918887680e-01
-3.481358133461860682e-02 9.860178729920768270e-02 6.922159578471940300e-01
3.701134056495092306e-02 1.656123081902502459e-01 6.651444707700313597e-01
3.960955024913136863e-02 1.818840505259003704e-01 6.892596588043611305e-01
-6.240279857697223626e-03 9.947483767621920214e-02 7.063678429730139152e-01
5.950130927520707463e-03 1.002529861767550157e-01 7.060910545287549800e-01
-2.392493194905100443e-02 1.422090103708852638e-01 6.362919704810088284e-01
2.980405676549913521e-02 1.099762553995594361e-01 7.040794038349998951e-01
-1.072041261024822903e-02 1.591056261366993740e-01 7.271005988638935547e-01
7.330056694148224736e-03 1.432133009504903132e-01 6.243402576147634164e-01
-7.628406989345604475e-03 1.413830491188694527e-01 7.256970012636658751e-01
1.453488228165152052e-02 1.360072279475074697e-01 6.241162236251384110e-01
1.094605571782207055e-02 1.160317962135476444e-01 7.114980457474323616e-01
1.117814456411647152e-02 9.843689377442615962e-02 7.036333518116328900e-01
2.755227075277634236e-03 1.541535127851590692e-01 7.247408501828470628e-01
-1.652766441350982801e-02 1.516214309344854350e-01 7.239763582233881278e-01
3.871427768354038235e-02 9.927085263795563941e-02 6.723267559293711892e-01
-9.684730253672120537e-03 1.143760997140849806e-01 7.091855063558069050e-01
1.546981353569815490e-02 1.846330653244795394e-01 6.890679487946055337e-01
-1.992148169373916117e-02 1.704641696422632413e-01 6.684628962109374628e-01
3.130686909168298171e-02 1.266570955998448100e-01 7.027835262615085288e-01
-1.925902840722130624e-02 1.890493891347482802e-01 6.938284752431773672e-01
2.863049521129052213e-02 1.262913324422835493e-01 6.220738317710231557e-01
-1.820920633270906724e-02 1.360615544548643419e-01 7.156765734485626140e-01
-1.981442929930646996e-02 1.492317947619078711e-01 7.172094585916374276e-01
3.069297722416040874e-02 1.573548262223435079e-01 6.530813540337856438e-01
4.140572615971301745e-02 1.771708405454853752e-01 6.890514131044535029e-01
1.979933841366714273e-03 1.352047899079313331e-01 6.225472743188117386e-01
4.417588827341034641e-02 1.674558225658472621e-01 6.981361561453605091e-01
1.379566924348171741e-02 1.145319481386266047e-01 7.115892841629849475e-01
-1.326272605741765295e-02 1.099521034011330251e-01 7.073191991079813556e-01
-2.382630179058275316e-02 1.150933463303084325e-01 7.060882683115446978e-01
1.890493270204397086e-02 9.528803315131786911e-02 6.883292813256592924e-01
-3.349224915499963290e-02 1.187519903316898301e-01 6.986424720229589269e-01
3.489267980045152734e-02 1.620440487820609121e-01 6.597961698376030304e-01
-3.503723009171343106e-02 1.412175612697372795e-01 7.008045425951925367e-01
-1.439197934958892297e-02 1.453788319411958019e-01 7.189710690695625406e-01
-1.312190619281045079e-02 1.441562140429564765e-01 7.129652431246844557e-01
2.622078611962008754e-03 8.914914676240559555e-02 7.003212822152030670e-01
4.373485746622402665e-02 1.464468373750125729e-01 6.728772355577055109e-01
2.798744035446036962e-02 1.440451800974589525e-01 6.390898811165333093e-01
4.195679921379579652e-02 1.255054841491901330e-01 6.390269981093859020e-01
4.267654074819303422e-02 1.627276637512074797e-01 6.892607450146468473e-01
4.496783449736003330e-02 1.131715776013609981e-01 6.448760366425979607e-01
-3.020440081826582246e-02 1.577482491286456012e-01 6.614843615638920094e-01
-8.810427018107145139e-03 1.909919479752176519e-01 6.661521143468216444e-01
3.661654661533060573e-02 1.737266060425703418e-01 6.744458530000652097e-01
4.570884215844286946e-02 1.258926410217548475e-01 6.600602212130602942e-01
1.249905770214904469e-02 1.003125624511300995e-01 7.003141243635451207e-01
2.788946047926282867e-02 9.478648079442364427e-02 6.794987032850848818e-01
6.658541250491790096e-03 1.087654449224792486e-01 7.093843654853554392e-01
8.892209883965038197e-03 1.333487715710849064e-01 6.145805989257205892e-01
-6.306945918803706294e-03 1.107136002656347318e-01 7.100777737517357524e-01
-2.489933427242985164e-02 1.311654795925918382e-01 7.070312423535521917e-01
3.477384950897772359e-02 1.362123975698680545e-01 6.392335108010092082e-01
-2.235131915653481779e-02 1.618872028106417282e-01 6.594139912574816798e-01
-9.199681515778801097e-03 1.128500413741906488e-01 7.109916680963448421e-01
2.556456321140443758e-02 1.583509527032417874e-01 7.177647398679912749e-01
-3.786987292572613177e-03 1.329654299651145122e-01 7.178167512501506531e-01
